x	y	z
-4.310873447	9.123096662	-0.184230772
-4.284136747	9.138994932	-0.184285534
-1.932280788	9.403130627	-0.086120371
-1.906199158	9.422736834	-0.086245965
-0.03428034	9.4499356	0.00643241
-0.005288183	9.449996625	0.00643241
1.301592819	9.334334038	0.081754124
1.43109906	4.268004551	0.497929495
1.406610606	3.503188323	0.557650487
1.504032546	2.573382478	0.637096694
1.514400733	2.572970002	0.638141803
1.52328463	2.569994286	0.638559869
1.552443478	2.565068244	0.640859117
1.5811262	2.55899054	0.642949276
1.963882197	2.575156842	0.659363203
1.976546232	2.57533834	0.660959236
2.364655901	2.586895956	0.679169615
3.158318451	2.600989157	0.718049939
3.174667692	2.598149207	0.719951328
3.64005378	2.606419	0.741642044
3.656875822	2.60152998	0.74343978
4.70575128	2.61918432	0.795558014
4.194954532	2.609336031	0.770534243
5.439548566	2.622878413	0.832486952
5.45293199	2.608742962	0.833306338
6.314538479	2.624133562	0.876222093
15.31936209	-9.741934693	2.326297301
8.175286303	-9.281355337	1.929109539
4.009546298	-9.889684093	1.767814443
3.875662413	-9.906905904	1.762257861
3.842754075	-9.912310607	1.76111381
3.739176439	-9.914950281	1.75539379
3.70666849	-9.920830349	1.754413293
3.671077797	-9.918277427	1.751961873
3.63791469	-9.922083003	1.750654386
3.602405547	-9.9192876	1.748202965
3.506034967	-9.938067988	1.745751545
3.471299225	-9.936670194	1.74362688
3.437572455	-9.937949725	1.741992639
3.402592056	-9.935382497	1.739704655
3.369560701	-9.938300215	1.738397168
3.336543149	-9.941108625	1.737089798
2.863405347	-9.925437518	1.711267993
2.831047279	-9.927534404	1.710123942
2.799773685	-9.933324302	1.709633633
2.766638182	-9.932363526	1.707999393
2.69865239	-9.923448894	1.703586743
2.664867351	-9.919295431	1.701462194
2.599951714	-9.920191684	1.69884734
2.565797002	-9.913794451	1.696395918
0.500396526	-9.28579533	1.540484356
0.471304992	-9.275463329	1.538523243
0.442140424	-9.262083823	1.536071704
0.413458571	-9.257483327	1.535091207
-2.437077345	-12.9519527	1.688767452
-9.717388334	-13.27566837	1.345380508
-9.308863927	-10.72785859	1.161508285
