x	y	z
1.140661643	3.726443302	-0.757239635
1.129635924	3.247465151	-0.767738512
0.722458846	2.672526129	-0.78647376
0.967612178	4.14695746	-0.75063174
1.3541003	3.831111485	-0.749947874
0.990967757	3.159500391	-0.771712572
1.367169888	3.830643778	-0.750673859
1.378582222	3.825506042	-0.750492361
1.011226819	3.156142778	-0.772393495
1.40135108	3.815129107	-0.75012937
1.027444575	3.586668512	-0.762253846
1.029201567	4.123983104	-0.74924301
1.435015042	3.798390202	-0.749403385
0.885408606	3.458123024	-0.766314237
1.066866925	4.113382604	-0.749069383
1.459000869	3.791349117	-0.749766377
1.090820585	4.101999965	-0.748201418
1.469913658	3.78502159	-0.749403384
1.273510278	3.671731644	-0.755141491
1.095718123	3.120589302	-0.770804673
1.115710516	4.094279564	-0.748027791
1.128004513	4.089888035	-0.747854222
1.504687816	3.771332746	-0.749403385
1.1421353	4.092099655	-0.748895813
0.975714181	2.692471078	-0.783289124
1.154684312	4.088576265	-0.748895813
1.165057896	4.077439123	-0.747507025
1.179202688	4.079522197	-0.748548616
1.363924272	3.641210823	-0.755522961
1.178022191	3.531808477	-0.760652448
1.015167299	3.011688124	-0.773699131
1.214160209	4.060004476	-0.746986201
1.597174556	3.734174189	-0.749584882
1.209203989	3.517110652	-0.759851779
0.900746408	2.61680601	-0.786200474
1.607844253	3.727450577	-0.749221889
1.250894318	4.046775827	-0.746639061
1.619272428	3.722500169	-0.749221889
1.485031194	4.202308521	-0.740007092
1.263891287	4.044798899	-0.7469862
1.496258959	4.193087251	-0.739188125
1.277184436	4.04371975	-0.747507025
1.31373725	4.02992116	-0.747159829
1.326402789	4.026806922	-0.747333398
1.264052209	3.049955789	-0.769442828
1.698424709	3.685976221	-0.749040392
1.574580828	4.168526915	-0.739843298
1.58701084	4.162754701	-0.739679504
1.597649039	4.152342254	-0.738696744
1.728919696	3.663073691	-0.747588423
1.384790507	3.996681462	-0.745597469
1.742262009	3.66219245	-0.748495904
1.408631432	3.986252478	-0.745250274
1.4231712	3.988404942	-0.746465434
1.580238526	3.540861122	-0.753424818
1.829835423	3.61482254	-0.747769919
1.065499478	2.54894686	-0.784834155
1.967950601	4.240852636	-0.730865627
1.723122634	4.098652097	-0.738205362
1.737614508	4.097887404	-0.739024329
1.452251825	3.418594813	-0.758850955
1.473200569	3.409619665	-0.758850956
1.674420187	3.489688591	-0.752089672
1.785393653	4.070835072	-0.738041568
1.277187563	2.906016845	-0.772753027
1.79787448	4.065338444	-0.738041569
1.905186948	3.571224529	-0.747043935
1.698811593	3.485525758	-0.753424818
1.286097086	2.902084896	-0.772753027
2.328091047	4.339154907	-0.722672354
1.809936497	4.058902764	-0.737877776
1.917065472	3.567095121	-0.747406927
1.125376883	2.516761627	-0.783194493
2.341862952	4.332862437	-0.722817552
1.820357922	4.048831999	-0.737058866
1.303081428	2.892367003	-0.772279944
2.355145091	4.325657102	-0.722817551
1.601037667	3.908687065	-0.744555879
1.729504971	3.467107418	-0.752852612
1.418242306	2.586024062	-0.77689629
1.140400279	2.508933446	-0.782921265
2.095782364	4.175840994	-0.730402259
1.613397901	3.90466714	-0.744729449
1.651431668	2.997956127	-0.764251757
2.1063543	4.164983417	-0.729629963
1.626506228	3.902426149	-0.745250274
2.395338636	4.304662603	-0.722962749
1.968204927	3.531256228	-0.746136453
1.759110888	3.446671059	-0.751898938
1.164661815	2.500947191	-0.783741066
1.98143654	3.529488751	-0.747043935
1.387220835	3.272115799	-0.762955992
1.781581002	3.438427269	-0.752471144
1.394946699	3.262450378	-0.761696606
1.18638828	2.487517238	-0.782921263
1.919172926	4.002938887	-0.737058867
2.184509437	4.129000221	-0.730247825
2.021648074	3.499798553	-0.745954957
1.716896649	2.964335524	-0.76490556
2.194843143	4.1179191	-0.729475527
1.821792606	3.412841605	-0.751708145
1.636134613	3.327950598	-0.757649922
1.572425276	2.897482804	-0.768307955
1.740568069	3.839933062	-0.743167091
2.067457573	3.479798808	-0.747043934
1.990757771	3.963409016	-0.736403694
1.775421273	3.822857571	-0.742993522
2.026700623	3.944041184	-0.736239899
2.051319037	3.932405635	-0.736403691
1.810530682	3.806355143	-0.742993522
2.0629148	3.925220945	-0.7362399
2.141186086	3.433765155	-0.746862438
2.614914336	4.171421088	-0.722527158
1.821722844	2.894176854	-0.763598013
2.624531298	4.158358803	-0.721655917
1.945187669	3.341777118	-0.751326675
2.113276146	3.903947958	-0.737058867
2.663228351	4.134858865	-0.721801114
2.323844889	4.62788792	-0.717204337
2.39628382	4.008655389	-0.73009333
1.893619355	3.770118185	-0.743687917
1.526598385	2.77422991	-0.770860757
1.602097646	3.165871426	-0.761696606
2.418786784	3.990496717	-0.729475527
2.225350628	3.381005059	-0.747043934
1.612691166	3.162683461	-0.762116402
1.343610649	2.405133786	-0.782647977
2.234626562	3.372522366	-0.746680942
1.55206705	2.760062146	-0.770860759
2.441157221	3.972213114	-0.728857724
2.245508534	3.366468885	-0.746862438
1.728933362	2.80461735	-0.767854005
1.562442841	2.758669243	-0.771806921
2.454891991	3.967225633	-0.729321091
1.746625848	2.794781804	-0.76808098
2.48076323	3.954598721	-0.729784456
2.434854853	4.56596795	-0.716655617
2.489718723	3.941957266	-0.728857725
1.669712414	3.130737821	-0.761696606
2.4483828	4.557603804	-0.716518465
2.50233088	3.935134398	-0.729012162
2.295766998	3.330009384	-0.746499447
1.770703145	2.776124768	-0.767400057
2.46093938	4.547457518	-0.716106896
2.517055452	3.931599074	-0.729784457
2.538442831	3.911936766	-0.729012161
2.276930067	3.806220615	-0.736403693
2.105213285	3.239836664	-0.750754471
2.334754303	3.299177759	-0.745954957
2.114605729	3.232541016	-0.750563735
2.356672588	3.287187556	-0.746499446
1.92945429	3.154295536	-0.755448008
1.73512157	3.091602436	-0.761066942
2.582969564	3.875558726	-0.728085487
2.36329396	3.275157272	-0.745410412
1.938608675	3.147527137	-0.755247856
2.596498804	3.870077495	-0.728548853
2.377953714	3.274256776	-0.746862438
1.950321305	3.144895285	-0.756048525
2.383925595	3.261388553	-0.745591907
2.914112143	3.966955921	-0.72238196
2.623529099	3.858975217	-0.729475528
2.175405109	3.195504772	-0.751135939
2.634239949	3.849277446	-0.729166655
2.186308319	3.190435198	-0.751517409
2.644916062	3.83955031	-0.728857725
2.417954913	3.244829064	-0.746862438
2.654994296	3.828981989	-0.728394359
2.423768444	3.231888539	-0.745591908
1.996744905	3.11213488	-0.755448008
2.638785343	4.443160944	-0.715695325
2.667294434	3.821628697	-0.728548853
2.152202726	3.622993627	-0.742819895
2.434264634	3.225222155	-0.745773403
2.653929602	4.437595018	-0.716106896
1.501713615	2.30742663	-0.782101461
2.02745015	3.096904604	-0.756248679
2.995010463	3.898755659	-0.72151072
1.914151113	2.681625348	-0.767854005
2.691562529	4.407908245	-0.715283756
3.00635235	3.888765855	-0.721365522
2.443624476	3.68839856	-0.734601964
2.456570905	3.68334649	-0.735093345
2.484055003	3.188278799	-0.745954957
1.857525119	3.02079253	-0.76127687
2.46730987	3.674973456	-0.734929551
2.273556884	3.128859202	-0.751517409
2.745978114	4.375385935	-0.715420966
1.882650135	2.999427777	-0.76022741
2.771710009	4.356783236	-0.715146606
2.781496878	3.735634148	-0.728085487
2.515020934	3.648480188	-0.735748519
2.78185791	4.343254117	-0.714323465
2.807935313	3.723229989	-0.729012162
2.808994559	4.32693443	-0.714460676
2.827133193	4.325758438	-0.715695326
2.828928526	3.703575209	-0.728548853
2.574884075	3.123035809	-0.747043934
2.839846897	4.316237062	-0.715558117
2.84268606	3.69801193	-0.729166655
2.580685829	3.110580519	-0.745954957
1.743184825	2.257556982	-0.780123283
2.851600013	3.686147403	-0.728548853
1.606272696	2.235900214	-0.782101461
2.590480148	3.590431017	-0.735093345
1.754627307	2.243779192	-0.779067982
2.602062892	3.583264983	-0.735257139
1.76090645	2.237627551	-0.778804173
1.618829556	2.224446549	-0.781554887
2.614790147	3.577654327	-0.735748519
2.900918406	3.656294388	-0.729629964
2.62681734	3.06913471	-0.745591908
1.634160393	2.21679457	-0.782374689
2.411409599	3.01635548	-0.750373
3.21576356	3.716153391	-0.721220326
2.647607194	3.553436928	-0.735748518
2.655537436	3.541351254	-0.734929551
2.665795477	3.532399993	-0.734765758
2.668173938	3.041103659	-0.746680942
3.32968409	4.360988076	-0.705698613
2.963958027	3.59770323	-0.728703289
2.68678348	3.024674813	-0.746680942
1.759553154	2.485353364	-0.774051435
3.356380035	4.340475229	-0.705698612
2.264771152	2.921633317	-0.755247855
3.36968054	4.33015776	-0.705698613
2.995039274	3.568001056	-0.728239923
2.487866542	2.960025396	-0.751326676
3.381114845	4.317456736	-0.70531595
3.007884366	3.56105982	-0.728703289
3.392503043	4.304726299	-0.704933229
2.759532623	2.957107922	-0.746499446
3.062803395	3.515247319	-0.728857726
2.330071934	2.876132087	-0.756248677
3.376436544	3.578964942	-0.722091567
3.075527345	3.508063041	-0.729321091
3.388762997	3.570024399	-0.72238196
2.785277228	2.930159037	-0.746136453
3.399016407	3.558895471	-0.722236763
3.096338844	3.488386867	-0.729166655
2.815011872	3.414677518	-0.734765757
2.556024903	3.344147093	-0.741951931
2.797652166	2.925153639	-0.747043934
1.754638435	2.123959056	-0.782647977
3.147258835	4.092489158	-0.715009396
3.413346788	3.55201784	-0.722962749
2.804567562	2.914431015	-0.746499446
2.378842535	2.46633637	-0.765123475
2.837175261	3.398855446	-0.735093345
2.815547999	2.907932503	-0.747043935
3.432317548	3.528170241	-0.72238196
2.852030907	3.395422803	-0.736239899
2.836091045	2.893410914	-0.747769918
2.607218123	2.862101206	-0.752280407
3.451818632	3.504928654	-0.721946369
2.854484102	2.876652636	-0.747951416
2.409226124	2.811450843	-0.756448889
2.411576693	2.424712932	-0.763598015
1.935571824	2.092323274	-0.779595602
3.973835298	4.292831238	-0.695782131
3.171877781	3.422540697	-0.729475527
2.859821986	2.86440222	-0.747043935
2.240214149	2.410575646	-0.766946107
3.588889787	4.14635277	-0.70531595
4.447292414	4.410695204	-0.685532879
3.999422115	4.267642958	-0.695664054
3.189438389	3.399411503	-0.728703289
2.435644345	2.789896	-0.756649043
4.014539635	4.257519891	-0.696018344
3.201887238	3.391765651	-0.729166655
4.477822891	4.386802555	-0.68607689
4.033734118	4.251666971	-0.697081334
3.211597616	3.381210199	-0.729012162
2.895460559	2.82977938	-0.747225431
2.451419173	2.773430376	-0.756248678
1.825941584	2.064266704	-0.782921264
4.490548092	4.372350733	-0.685968112
3.2240038	3.373484117	-0.729475528
2.905539321	2.822253344	-0.747588423
2.457901619	2.381950384	-0.764251758
3.237077564	3.366425666	-0.73009333
4.072694307	4.21436131	-0.697081334
3.242581319	3.351508268	-0.729012161
4.083527995	4.199710977	-0.696727043
3.679096502	4.070535757	-0.705698612
3.568440624	3.407645056	-0.724124383
3.25767261	3.346500078	-0.73009333
4.541703592	4.314861721	-0.685641717
4.098476337	4.189292621	-0.697081334
3.571701767	3.389870271	-0.722672355
3.268615439	3.33719563	-0.730247823
4.107130445	4.172452758	-0.696372694
3.277451386	3.325744502	-0.729938893
2.956277763	2.767621617	-0.747406927
2.50204249	2.336971209	-0.764469674
4.131953721	4.146469781	-0.696254558
3.299889586	3.30767034	-0.73040226
2.969074376	2.762558002	-0.748495904
4.619784192	4.256138183	-0.68749125
3.320122777	3.287360186	-0.730402259
1.888403339	2.007284912	-0.782921265
3.636413316	3.326223542	-0.723253142
3.647332941	3.315717178	-0.72339834
4.204322294	4.091604515	-0.697790032
3.066765421	3.206895854	-0.73673128
4.671665615	4.199125717	-0.687491249
4.216855325	4.078686434	-0.697790032
4.68304379	4.183448973	-0.687273633
3.815725194	3.945507024	-0.705953779
4.244674336	4.055479609	-0.698262459
3.036712908	2.689513218	-0.7486774
2.802521165	2.671158013	-0.752280408
4.474562261	4.919279677	-0.674415754
4.25349584	4.039019156	-0.697671896
3.044211815	2.679534418	-0.748495904
2.812841074	2.664572787	-0.752852614
4.483588169	4.898923578	-0.673507619
3.402674476	3.207601019	-0.731020062
3.721424985	3.239877776	-0.724124383
6.49493268	5.633054211	-0.623660812
4.289037332	3.99834586	-0.697435684
6.512183905	5.613101503	-0.623660812
4.767541667	4.103674045	-0.688470435
3.742735047	3.218272621	-0.724414777
3.079848855	2.644537882	-0.749221888
6.533918938	5.596988736	-0.624094912
4.780108834	4.089028022	-0.688470434
4.32006434	3.978007315	-0.698498673
3.750334429	3.204846776	-0.723979187
2.856274203	2.623768758	-0.753615553
1.961006345	1.936417665	-0.782921263
6.553338093	5.57885652	-0.624311934
4.79111638	4.073055873	-0.688252817
6.574991346	5.562589653	-0.624746034
4.57437186	4.817007927	-0.673709439
4.805108563	4.059620932	-0.688470434
4.345860753	3.952761147	-0.698734886
3.777489253	3.18815611	-0.725431214
2.65300992	2.589684235	-0.757449712
6.595079746	5.544959459	-0.625035474
5.162311646	5.023142736	-0.659442703
3.94135696	3.832827021	-0.707101884
3.784978576	3.174644528	-0.724995566
3.184847125	3.09390586	-0.73722266
2.91177275	3.044887432	-0.742646325
2.275744239	2.207367429	-0.77180692
5.180561551	5.010050614	-0.659807365
3.95095747	3.818649337	-0.706719163
3.48404492	3.126428466	-0.7317923
3.190065946	3.08000911	-0.7362399
4.623354672	4.779708355	-0.674415754
4.38057561	3.911272851	-0.698498673
3.964800444	3.80857129	-0.707101884
5.865291704	5.210717043	-0.644335263
4.640078252	4.767640378	-0.674718426
3.980770647	3.800498835	-0.707867268
3.815564698	3.140931776	-0.725286018
3.500944601	3.103025894	-0.731328934
2.295260327	2.185658593	-0.771570352
4.660252248	4.759069104	-0.675525652
4.869890952	3.987956021	-0.688905608
5.895655152	5.173315397	-0.644171587
4.671339666	4.741205753	-0.675021158
3.522148578	3.083438616	-0.731792301
3.234084552	3.046718175	-0.737714041
5.266971606	4.939532494	-0.66108374
4.689365577	4.730384854	-0.675525652
5.283557734	4.92470812	-0.661266128
4.703855777	4.715975797	-0.675525652
5.296450357	4.906445277	-0.660992603
2.027347364	1.871105781	-0.783741067
5.308547692	4.887474811	-0.660627883
4.468084837	3.820173878	-0.699207313
2.996126525	2.964723494	-0.742993521
5.320578351	4.868476209	-0.660263221
5.345804132	4.861510112	-0.661539596
2.042344146	1.850429672	-0.782921264
11.11153633	10.75205677	-0.431352181
2.539637345	2.109573382	-0.769442827
2.364844062	2.117463917	-0.772753025
11.15815966	10.73108181	-0.431882036
3.235723379	2.465984501	-0.750855355
10.90180636	8.244345173	-0.491633942
4.573393952	3.696610425	-0.699443525
3.64229326	2.940548166	-0.7317923
4.587036126	3.68442759	-0.699797874
3.028259937	2.426383797	-0.75399708
2.761628139	2.046657408	-0.767520596
7.917043116	6.818044813	-0.57445162
3.667992932	2.924303035	-0.733336835
4.616558697	3.661766613	-0.700860863
6.89500146	6.308591727	-0.603203294
4.021108755	2.896855626	-0.727318835
4.025149971	2.881050198	-0.726447594
3.41861625	2.845823802	-0.73853295
4.042033071	2.874421597	-0.727899623
9.442151829	7.225886362	-0.538457659
3.141436283	2.287972958	-0.755141491
2.315158689	1.680741984	-0.782497692
3.202291984	2.214097064	-0.756476695
2.547527589	1.901870302	-0.773935701
2.992834249	2.206331323	-0.759651626
2.224329992	1.638528453	-0.784834155
3.242503667	2.154778288	-0.756476695
3.487497647	2.123342853	-0.753577855
2.59252647	1.850112314	-0.775354889
2.25489803	1.597864328	-0.785107386
3.50046041	2.10190415	-0.753577855
3.511115658	2.093673181	-0.754485336
2.61024071	1.826730165	-0.775591401
3.079300601	2.099645956	-0.761453176
4.346663234	2.435796466	-0.731239272
3.58664858	1.977810873	-0.755937305
3.802865541	2.363899607	-0.743446696
3.810100169	2.352221321	-0.743446697
3.198045256	1.931040295	-0.763254725
3.220656575	1.89115392	-0.763054516
3.22898261	1.882744715	-0.763655033
3.231352	1.870865903	-0.762854363
13.55480385	8.389061063	-0.444709939
2.972530555	1.506942013	-0.776705954
2.971919862	1.495189047	-0.775344107
3.753252216	1.68110268	-0.759022741
2.822479401	1.508969242	-0.779139426
3.547760254	1.680350685	-0.762771124
3.568113547	1.636687733	-0.762771123
3.574011703	1.626139723	-0.762961859
3.595494563	1.582949748	-0.763343329
13.45831654	5.193621493	-0.518881072
13.46018581	5.146953125	-0.51834183
3.306593159	1.113604784	-0.779070484
3.693005905	1.387953368	-0.76658594
14.03653312	4.307166838	-0.528119196
14.0745449	4.271629343	-0.529053797
14.10098424	4.232451132	-0.529557039
4.146058307	0.683569311	-0.775539008
3.066371293	-0.014179098	-0.807717436
3.283999053	0.16162518	-0.800427403
2.846651119	0.121849984	-0.809428524
3.439803396	0.009860923	-0.801673146
2.852031543	0.078275845	-0.810521613
2.850534635	0.060733654	-0.809975096
3.597309882	-0.366729603	-0.807400275
3.455960943	-0.223664896	-0.807120533
3.600813826	-0.389424998	-0.808707822
63.29515278	-6.786961796	0.043330622
3.600572171	-0.400578232	-0.808925737
3.453927149	-0.266132841	-0.807347508
3.312554676	-0.131891406	-0.807050313
3.900778572	-0.16689058	-0.797684219
4.099782023	-0.376137532	-0.799965496
2.970519339	-0.27713393	-0.816003134
4.296603358	-0.566631298	-0.799859728
2.96869491	-0.286153514	-0.815739323
2.969722608	-0.295450959	-0.816266943
4.100053192	-0.41424969	-0.800728494
3.592732324	-0.522962311	-0.810669113
3.596210168	-0.546022601	-0.812194574
4.301912114	-0.661606416	-0.803308156
3.589696008	-0.55630571	-0.811104944
3.318221036	-0.264950457	-0.810361768
3.318360783	-0.275209699	-0.81059828
4.300493398	-0.701964261	-0.804215637
3.316609713	-0.2955656	-0.81059828
4.099714178	-0.580152224	-0.804543251
4.095972046	-0.592446182	-0.804161782
3.587252227	-0.66919979	-0.814809611
2.964050459	-0.442664632	-0.819696656
2.863392719	-0.318045423	-0.818446468
3.066112449	-0.585547397	-0.822236472
2.866164161	-0.336169175	-0.819812842
3.909111236	-0.481374507	-0.804690264
3.451793664	-0.556110999	-0.814837665
3.185698485	-0.272391332	-0.812729366
4.097935873	-0.669956635	-0.806832187
3.450071291	-0.566698351	-0.814837665
2.864857464	-0.362776106	-0.82035936
3.450237596	-0.577601951	-0.815291614
3.317604577	-0.429569739	-0.814382818
2.862777043	-0.371439873	-0.820086073
2.862350299	-0.389257795	-0.820632645
2.864000875	-0.398435174	-0.821452448
2.861812826	-0.407084466	-0.821179163
4.281084147	-0.957752087	-0.809660581
4.27620783	-0.970446516	-0.80929759
4.090870813	-0.772326434	-0.808930331
4.276085027	-0.984222952	-0.809842076
3.438848531	-0.662838397	-0.816199512
4.272087843	-0.997113623	-0.809660581
4.087018549	-0.797601056	-0.809121067
3.56692136	-0.836860182	-0.818078447
2.8538347	-0.459692116	-0.821179161
4.270670731	-1.024454814	-0.810568062
3.570258463	-0.860789399	-0.820039739
2.853360267	-0.468601279	-0.821452449
4.27515195	-1.039410789	-0.812020031
4.084611785	-0.849293638	-0.810646948
3.561120189	-0.881741641	-0.81916808
3.565024666	-0.894325161	-0.820693541
4.080283253	-0.874546091	-0.810837738
4.079499317	-0.887477423	-0.811219208
3.304079682	-0.604385621	-0.817694272
3.034606792	-0.794925479	-0.826311999
4.074935247	-0.91270666	-0.811409945
3.300299622	-0.614163994	-0.817221192
3.303173268	-0.625189782	-0.818403868
4.078823758	-0.939897028	-0.813317351
3.02809507	-0.823075271	-0.826566691
2.939084674	-0.682018627	-0.825236907
4.071141505	-0.951289451	-0.812363618
2.85085914	-0.558496069	-0.825278232
4.253748657	-1.187562927	-0.815105524
3.549311887	-0.995306715	-0.823090661
3.299857208	-0.677151432	-0.820059623
2.843857795	-0.611685535	-0.826371322
4.248234043	-1.256577427	-0.817646471
2.926131757	-0.755147103	-0.826556017
4.240590148	-1.268477531	-0.816920485
3.417312084	-0.89023071	-0.823008747
2.927534135	-0.765096363	-0.827611317
4.241385216	-1.282905148	-0.817827968
4.061364173	-1.068067149	-0.815987699
2.924240508	-0.773827529	-0.827347505
4.241190746	-1.297061847	-0.818553951
4.05617111	-1.080017114	-0.815606229
3.529414612	-1.083830388	-0.824398207
4.233433535	-1.30890558	-0.817827967
4.053786526	-1.092711662	-0.815796965
3.526072881	-1.094653409	-0.824398208
2.921299284	-0.792260737	-0.827875127
2.918855035	-0.801219458	-0.827875129
4.230010915	-1.336338039	-0.818735447
3.521150509	-1.116858466	-0.824834038
4.231512135	-1.351103881	-0.819824425
4.052066727	-1.132353167	-0.817513639
3.521425001	-1.128847639	-0.825705755
3.401284782	-0.953244241	-0.823235722
3.518142482	-1.15164803	-0.826577415
3.400988353	-0.975707559	-0.824597567
2.917145656	-0.839378456	-0.830249539
4.045244865	-1.170691013	-0.818276579
3.397043754	-0.985865592	-0.824370594
4.041634139	-1.183096108	-0.818276579
3.87291905	-0.981954811	-0.816300236
2.908239203	-0.856172304	-0.829194239
3.877479899	-0.995781798	-0.817901575
3.156485952	-0.686492314	-0.821105488
4.037119867	-1.208717497	-0.818848841
3.160043245	-0.697426282	-0.822583622
4.214545088	-1.44612846	-0.822365373
4.036211073	-1.221950845	-0.819421046
4.033381951	-1.234615371	-0.819611782
4.200951203	-1.47033689	-0.82145789
3.703680356	-0.852004982	-0.815848678
3.267132119	-0.882279741	-0.82384416
4.197347696	-1.483545971	-0.821639386
4.028541166	-1.260219707	-0.820183987
3.869310283	-1.057207949	-0.819502974
2.899348153	-0.91187356	-0.831304838
2.730844934	-0.637440998	-0.828209727
4.195555095	-1.497407945	-0.822183875
3.864159785	-1.068551664	-0.819102609
3.706946083	-0.876739609	-0.817737669
2.899294583	-0.921640989	-0.832096326
4.193717072	-1.511272891	-0.822728365
3.862750452	-1.080929774	-0.819502973
3.378732986	-1.082544611	-0.826867313
4.197377811	-1.52715795	-0.824361888
3.860358736	-1.093042302	-0.819703126
4.190826481	-1.53935002	-0.823998895
3.857929012	-1.105150435	-0.819903279
2.972913636	-1.099950053	-0.834972495
2.893438915	-0.949188327	-0.83288776
3.856402555	-1.117526577	-0.820303644
2.971336825	-1.109742366	-0.835481935
2.892344348	-0.958667752	-0.833415437
4.012112651	-1.336640681	-0.821709925
3.855776504	-1.130179312	-0.820904161
4.014505809	-1.351135176	-0.823045129
3.851351626	-1.141724861	-0.820704007
3.695863064	-0.946278897	-0.818997053
2.807992902	-0.833543165	-0.832109999
4.009412032	-1.363129213	-0.822854335
3.141612382	-0.815701762	-0.825047201
4.176816646	-1.607337877	-0.825995353
4.008924859	-1.376698813	-0.823617333
2.878538566	-0.993459697	-0.832887758
2.800063975	-0.849918846	-0.831290195
3.360347303	-1.168335204	-0.829137058
3.248507892	-0.996001661	-0.827155615
3.24729303	-1.006538641	-0.82762864
2.799390076	-0.868508874	-0.832656572
3.687516385	-1.004658291	-0.82046625
3.841826553	-1.216266542	-0.823306227
3.685359382	-1.016226584	-0.820676176
3.455988696	-1.395805755	-0.832243372
2.947632055	-1.194621325	-0.837774389
3.459824647	-1.409716491	-0.834204664
3.984886583	-1.46484013	-0.824952536
3.98405509	-1.478424768	-0.825715476
3.340692187	-1.254215732	-0.831633777
3.235989864	-1.079729521	-0.830467072
4.143676412	-1.742327947	-0.829625276
3.976745005	-1.503536986	-0.826096946
3.824097434	-1.301642764	-0.82530793
2.780526857	-0.957101764	-0.835389265
4.127269785	-1.810424063	-0.831803288
3.663904078	-1.144661267	-0.824034421
3.216483068	-1.13943498	-0.830703583
3.661307586	-1.156190962	-0.824244349
3.31841387	-1.327835687	-0.832995624
2.840648734	-1.139250921	-0.837108959
4.113389441	-1.834512733	-0.831258801
4.108638664	-1.847527083	-0.831440297
3.659727494	-1.180435344	-0.825503676
4.111907647	-1.864184084	-0.833255259
3.657018362	-1.191960691	-0.825713545
2.759332837	-1.016590292	-0.835389265
3.940963243	-1.644041851	-0.829721029
2.753943729	-1.033840223	-0.835662552
3.944043656	-1.659551198	-0.831437699
2.891858956	-1.351575368	-0.840831035
4.092611225	-1.93165536	-0.835251717
3.297358328	-1.414248165	-0.836173266
2.821582473	-1.212810863	-0.840010991
4.085777866	-1.943779828	-0.835070222
3.390317949	-1.617711632	-0.838781047
3.195410562	-1.243554291	-0.834724632
2.817848324	-1.22146156	-0.84001099
2.749116898	-1.070699402	-0.838121962
3.931482388	-1.711351908	-0.833154375
3.286833232	-1.43367495	-0.835719317
3.381206287	-1.638909464	-0.838998962
2.810300568	-1.238728575	-0.84001099
2.739145846	-1.095956263	-0.83812196
3.373847583	-1.673863637	-0.840960253
2.73147879	-1.112379971	-0.837848731
3.628105975	-1.332160708	-0.829701513
3.905564644	-1.786285687	-0.834489519
2.658073908	-0.98567318	-0.837273565
2.854949509	-1.453645741	-0.84388768
3.611484939	-1.376582838	-0.829701511
2.722061325	-1.157535665	-0.840308138
2.652473884	-1.011462558	-0.838406588
3.613632581	-1.390113477	-0.831170767
2.786360543	-1.321216128	-0.843440701
2.715845087	-1.164743887	-0.839488336
3.887454454	-1.850625116	-0.836587661
2.780553445	-1.328926455	-0.842913022
4.022399742	-2.145881231	-0.841422646
3.145479749	-1.393960749	-0.837563063
3.733007254	-1.667582886	-0.835316505
2.827773342	-1.528329494	-0.846689577
2.702050057	-1.208229127	-0.840854712
3.725193557	-1.677820699	-0.834715988
3.233466988	-1.603610303	-0.841166648
2.764160612	-1.373567724	-0.844232132
3.863273027	-1.927125125	-0.83887654
3.725381018	-1.691672077	-0.835917021
2.759933469	-1.382041588	-0.844232131
3.858219597	-1.939409352	-0.839067276
3.585658204	-1.481364488	-0.832849889
3.71759984	-1.715730418	-0.836517538
3.223781672	-1.63594674	-0.842528495
2.690512792	-1.242910162	-0.841947745
3.991668252	-2.224823191	-0.843419103
3.709653609	-1.725887917	-0.835917021
3.130740355	-1.456951882	-0.840637949
2.809058482	-1.57436219	-0.848217898
2.752247528	-1.410023663	-0.845815054
3.843698297	-1.976632953	-0.839830274
3.119106714	-1.474888289	-0.839928357
3.114567057	-1.484450613	-0.839928356
3.564060018	-1.549842987	-0.834319143
2.791202625	-1.609681309	-0.84872734
3.283571802	-1.901793239	-0.847280014
3.823317812	-2.040906911	-0.842119151
3.106011887	-1.515609972	-0.8413476
3.553216645	-1.584172643	-0.835158676
3.102219368	-1.525560682	-0.841584112
3.183379106	-1.727577475	-0.844117316
3.099265408	-1.535933874	-0.842057192
3.178918571	-1.737802933	-0.84434429
3.098015699	-1.547171471	-0.843003298
3.673346513	-1.84811585	-0.840120639
3.093254597	-1.556668865	-0.8430033
2.764263791	-1.67425842	-0.851274544
3.171291755	-1.771737331	-0.846614035
3.084509975	-1.57606152	-0.843239811
2.757463003	-1.681724132	-0.850765102
3.53053917	-1.652623361	-0.836837798
2.998032571	-1.404508719	-0.84155304
3.077368835	-1.5963002	-0.843949462
3.524747176	-1.676354834	-0.837887257
3.07095521	-1.616963171	-0.844895568
2.742353582	-1.719031001	-0.852548175
3.760071952	-2.20414146	-0.846887643
3.508299136	-1.72163636	-0.838936717
2.676372022	-1.585480855	-0.850827684
3.131209863	-1.864594841	-0.849337729
2.672323763	-1.594178518	-0.851091553
2.613882102	-1.439254033	-0.847686478
2.613660385	-1.449599351	-0.849052798
2.600207863	-1.473593408	-0.849052797
2.634843623	-1.660823561	-0.851882983
2.585252673	-1.507329087	-0.850145885
3.00505044	-1.763409544	-0.848207024
3.002972062	-1.774597805	-0.849153185
2.617946214	-1.706839365	-0.854785074
2.979541803	-1.822987723	-0.850335803
2.633856929	-1.92235385	-0.858916157
3.075213674	-2.31180903	-0.859047759
2.875922587	-1.70943139	-0.850421911
2.517852246	-1.638662319	-0.853425154
2.496410647	-1.679776355	-0.854791529
2.489236036	-1.697230019	-0.855884563
3.549305538	-2.646227346	-0.860239501
2.952820125	-2.204960332	-0.858870657
2.519616998	-1.884558578	-0.860589137
3.001004715	-2.449250079	-0.864931634
2.504930745	-1.897653254	-0.859533837
2.499097011	-1.90532942	-0.859533838
2.495535535	-1.914749133	-0.860325327
2.922506682	-2.267296143	-0.8620483
2.859448114	-2.066420105	-0.858850982
2.448445279	-1.770378999	-0.858344027
2.472676711	-1.958192858	-0.862699736
2.439864608	-1.787074258	-0.859163831
2.435144741	-1.795122141	-0.859437118
3.375877748	-2.518794322	-0.86053815
2.425625786	-1.811181115	-0.859983634
3.455466322	-2.79737956	-0.863863581
2.399843734	-1.849937047	-0.860803435
3.514118318	-3.160338695	-0.872277227
2.893884001	-2.608581397	-0.869943846
2.394156932	-1.857290999	-0.860803436
3.500030978	-3.16714593	-0.87118825
2.883698625	-2.615480443	-0.869290102
2.388447599	-1.864627426	-0.860803436
2.872628065	-2.63774589	-0.870815562
2.780280029	-2.196932367	-0.86263552
2.404060952	-2.052262007	-0.864546468
2.399948468	-2.061513558	-0.865337958
2.368389697	-1.896201682	-0.861896526
2.763726258	-2.225475056	-0.863818195
2.750018962	-2.242391279	-0.863818196
2.353818577	-1.920351777	-0.862989615
3.27461057	-2.686342595	-0.865342283
2.347172409	-1.926953854	-0.862716385
3.432578232	-3.282959145	-0.876633194
3.267109365	-2.697000086	-0.865542437
3.257312307	-2.705758734	-0.865142131
3.253506102	-2.719509322	-0.866343164
2.763994519	-2.506152016	-0.869538458
2.365534771	-2.315373097	-0.871906871
2.3064584	-1.990260257	-0.865449079
8.867988273	-8.874781352	-0.910096178
3.965613502	-3.436083972	-0.871203531
3.348241368	-3.38416469	-0.878629652
2.312399297	-2.178997293	-0.869031477
2.309903267	-2.190063247	-0.870614398
2.284743331	-2.020963572	-0.86654217
3.239071157	-3.137741135	-0.876261705
2.686947263	-2.606801296	-0.872489126
2.647379291	-2.399016193	-0.869731512
3.220458298	-3.158244008	-0.876452441
4.150145738	-4.426843686	-0.890526307
4.134521036	-4.437383688	-0.890090715
3.998720632	-3.989314338	-0.88300058
4.126265842	-4.455854524	-0.891252349
3.981581904	-3.996664305	-0.881919413
4.113246092	-4.469220883	-0.891397546
3.970691678	-4.010264691	-0.882228284
3.828371099	-3.63866368	-0.876936246
3.944632507	-4.057975452	-0.884699552
2.190932853	-2.33427744	-0.87562703
2.543863163	-2.527852424	-0.873042968
3.093151311	-3.326054442	-0.882556134
3.083598944	-3.33624941	-0.88274687
3.976812516	-4.653694081	-0.898367238
3.076669404	-3.349308567	-0.883700545
3.121705188	-3.681020769	-0.890789954
3.069026744	-3.361631788	-0.884463543
3.718050716	-3.803917861	-0.883160283
3.058039289	-3.370304654	-0.884272808
2.146001493	-2.200090338	-0.873100648
3.939534961	-4.696921296	-0.89967407
3.704988175	-3.813891419	-0.882832695
3.100954387	-3.702367699	-0.891334443
2.502314575	-2.579827825	-0.874935237
3.698751579	-3.830917917	-0.884143043
3.090839249	-3.71337559	-0.891697436
3.038612285	-3.390467046	-0.884654278
3.080685895	-3.72435618	-0.892060486
2.128988007	-2.223222189	-0.874467023
3.070494087	-3.73530923	-0.892423477
2.516988935	-3.069161023	-0.886287977
3.059019759	-3.744711957	-0.892423478
3.04565755	-3.7517888	-0.891878932
2.109094771	-2.243423642	-0.874740254
3.862982437	-4.781722899	-0.902142536
3.826184707	-4.826378272	-0.903884958
3.617641453	-3.935787969	-0.887582648
3.00793328	-3.799675654	-0.894419936
2.921178164	-3.182309145	-0.882557058
3.814420978	-4.84198036	-0.904610944
2.910740945	-3.190532508	-0.882356848
3.797718318	-4.851322676	-0.904175353
3.598728819	-3.963754346	-0.888892996
2.949623465	-3.501600298	-0.889613504
3.588533741	-3.976973752	-0.889384319
4.903476291	-5.879692498	-0.91062302
2.882560056	-3.218646742	-0.882757211
2.05089193	-2.12450039	-0.872112777
4.889216443	-5.899295911	-0.911331719
2.047020437	-2.13355061	-0.873245744
2.949405592	-3.870041013	-0.89804986
2.908300843	-3.539808517	-0.890185767
2.04693064	-2.315712801	-0.878019522
2.937518623	-3.879071302	-0.898049859
2.901773143	-3.5540372	-0.891520913
2.039816475	-2.321981651	-0.87801952
5.063011887	-6.798160307	-0.927716087
4.784856172	-6.032490393	-0.91581983
2.36161379	-3.227825633	-0.893043567
4.769399848	-6.051041081	-0.916410393
4.748363968	-6.062518035	-0.915937967
4.723832867	-6.108034425	-0.918418235
1.979236201	-2.382591714	-0.879932414
4.706281441	-6.124073257	-0.918654507
2.804526833	-3.658515492	-0.895717198
1.974366752	-2.391620089	-0.881025504
4.687471056	-6.138482902	-0.918654507
3.510540593	-4.602725618	-0.904932707
3.499386683	-4.617411202	-0.905704945
2.295669152	-3.283393726	-0.894569028
3.486987398	-4.630493343	-0.906168312
2.794561304	-4.013289351	-0.902587321
2.29352323	-3.054405251	-0.890193136
3.472172821	-4.64037845	-0.906013876
2.285888815	-3.063769036	-0.890874059
3.534595681	-5.135382553	-0.914920341
2.276478527	-3.070767619	-0.890874059
3.524408481	-5.15436965	-0.91637237
2.763050479	-4.046961574	-0.904402284
3.50969045	-5.166795189	-0.916662764
3.43340916	-4.677714227	-0.907095044
2.75393365	-4.060302554	-0.905491261
2.251050411	-3.327112837	-0.896966149
4.800004263	-7.105426056	-0.938487005
3.4954827	-5.179998654	-0.917098355
2.23919907	-3.331573352	-0.896312405
1.884070391	-2.810502817	-0.891265625
4.789814638	-7.137452908	-0.94077177
2.230593365	-3.34086228	-0.896966149
1.909360947	-2.447492256	-0.881845305
4.771203409	-7.157076967	-0.94142456
2.718080339	-4.087933675	-0.906035749
1.905968652	-2.458660305	-0.883758197
2.666683922	-3.459226058	-0.89236548
2.224094137	-3.118493003	-0.892689854
2.215079323	-3.126096371	-0.892916829
2.213439585	-2.676967958	-0.882940897
2.681951658	-4.11524857	-0.906580237
2.671128412	-3.788289609	-0.900676482
2.206038841	-3.133673917	-0.893143804
1.881512024	-2.473801457	-0.882938396
3.34521729	-4.768968293	-0.910647421
2.198647099	-3.143619371	-0.894051701
4.659563259	-7.276334594	-0.945667636
3.259812377	-4.359483464	-0.903797914
4.643086485	-7.299822103	-0.946864437
4.619076439	-7.311511461	-0.946538042
3.235345353	-4.382577835	-0.904453088
2.617131181	-3.835303669	-0.90220242
3.221300986	-4.391687676	-0.904289294
2.61200921	-4.173920979	-0.90875825
1.840203772	-2.514224594	-0.885124573
4.211912836	-5.772957645	-0.919117632
2.603344266	-4.188596487	-0.910210219
1.814786091	-2.703820154	-0.890664924
4.194181714	-5.785852279	-0.919117632
2.592031224	-4.199074146	-0.910754708
2.583904442	-3.862492373	-0.902965361
2.569077568	-3.552895357	-0.89576837
2.132797375	-3.193347924	-0.894959599
4.177570553	-5.800302535	-0.919372741
3.241404626	-4.871013605	-0.914663166
2.579136525	-4.207006677	-0.910754708
2.573128987	-3.872036717	-0.903346832
2.562166808	-3.566330298	-0.897169556
2.136369128	-2.974311328	-0.891492569
4.162641538	-5.817124761	-0.92001057
3.231893452	-4.889176799	-0.916207699
2.566728926	-4.21573957	-0.910936205
2.551213508	-3.574174022	-0.897169555
1.809770335	-2.537400643	-0.885397861
4.145924718	-5.831484789	-0.920265678
3.216878446	-4.899069456	-0.9162077
3.162124964	-4.452647995	-0.906746198
3.150155672	-4.464746277	-0.907237519
2.539525945	-3.898845158	-0.904109829
2.532620487	-3.594566453	-0.898370589
4.281696137	-6.600403427	-0.935780353
3.137575878	-4.47600551	-0.907565107
4.268418032	-6.624359573	-0.937315768
2.520331499	-3.921786149	-0.905826443
1.782887644	-2.56573779	-0.887584039
4.251286413	-6.642442263	-0.938024408
2.509344113	-3.931155062	-0.906207972
4.228756793	-6.65210138	-0.937551981
1.767111003	-2.576629068	-0.887584039
3.090200078	-4.52557667	-0.909858215
3.121946714	-4.984602903	-0.919451147
3.076855112	-4.535852667	-0.910022009
1.751807002	-2.588220052	-0.887857269
3.062924892	-4.545271034	-0.91002201
1.738030135	-2.602119853	-0.888950358
1.98812772	-3.537691375	-0.906118859
3.977987859	-6.01520816	-0.927537027
2.423744051	-4.332245072	-0.916199652
2.413306546	-4.344818739	-0.917288629
2.416682424	-3.999114804	-0.907924588
1.967802324	-3.552384938	-0.906772662
1.714007232	-2.618006048	-0.888950358
5.743435325	-8.795985398	-0.961766999
4.252143236	-7.689109735	-0.961660874
2.999307612	-4.601636133	-0.911987472
2.400440234	-4.353063459	-0.917470125
1.95548354	-3.555839791	-0.906118859
4.228054976	-7.701247631	-0.961552095
2.986248184	-4.612472428	-0.912315059
2.386129529	-4.358682026	-0.917107132
1.948306442	-3.568675476	-0.907862236
1.936418843	-3.572919771	-0.907426406
2.376377645	-4.04370385	-0.911357934
2.379469545	-3.438746284	-0.897706359
3.764375902	-5.475390263	-0.920238499
3.747001426	-5.486095554	-0.92010129
2.352997602	-4.060756985	-0.911930139
1.960826607	-3.116988721	-0.896459725
3.731820958	-5.500024461	-0.92051286
1.950739826	-3.122165936	-0.896223214
3.719358764	-5.518018612	-0.92161036
1.57844347	-3.031063651	-0.900180811
1.647129461	-2.674156962	-0.892229625
2.306360502	-4.095313493	-0.913265342
3.677697724	-5.566066164	-0.92394251
2.274297646	-4.441278474	-0.920918552
2.292348249	-4.099799287	-0.912693136
2.279759328	-4.106813043	-0.912693137
2.845169923	-4.737668315	-0.917556393
2.258757957	-4.128474549	-0.914409809
1.606408057	-2.699934798	-0.892502913
3.612331807	-5.615776738	-0.924765592
2.823084201	-4.766920222	-0.919849444
2.791822696	-4.341201995	-0.909819831
2.24842409	-4.139698131	-0.915363485
2.810446552	-4.778960415	-0.920504619
2.779021139	-4.350576677	-0.909993459
2.232917917	-4.141392388	-0.914219075
2.250830516	-3.83318967	-0.908179011
1.590298139	-2.710570421	-0.892776143
3.683465802	-6.300095671	-0.938635293
2.798259027	-4.791819586	-0.921323586
2.200371493	-4.499173324	-0.924367038
1.583427367	-2.717930136	-0.893596002
2.187846027	-4.508556696	-0.924911526
2.211149124	-4.161950221	-0.915744954
2.226777041	-3.846080449	-0.907978857
1.85401843	-3.203026561	-0.900953856
2.200201575	-4.172187817	-0.916507953
2.219361761	-3.860538619	-0.909780408
1.569116256	-2.731765221	-0.89496232
2.190122512	-4.184136578	-0.917652363
1.559298286	-2.734059684	-0.894142519
3.52032216	-5.700700744	-0.927920882
2.147942259	-4.532057031	-0.925637512
2.196598454	-3.875788353	-0.910180713
2.730723383	-4.845351276	-0.923452843
2.134028027	-4.538625392	-0.925637511
3.494036673	-5.736575316	-0.930253033
2.712473454	-4.847680072	-0.92230629
2.120925013	-4.546933557	-0.926000504
2.17516492	-3.893470237	-0.911181594
2.161308834	-3.896697995	-0.910380924
2.15217912	-3.90845996	-0.911581957
2.129091556	-3.923314342	-0.911982265
1.729853414	-3.491549726	-0.908124063
2.091550367	-4.246311378	-0.919750506
1.720422339	-3.499462375	-0.908804986
1.453513913	-2.962425568	-0.902536918
1.49629054	-2.779973683	-0.896875213
2.63303093	-4.915917708	-0.925909687
1.48956792	-2.787944856	-0.897968303
3.382467793	-5.83170511	-0.933682626
2.619326128	-4.926585875	-0.926401068
1.701039266	-3.514335797	-0.909939858
2.606501271	-4.938960918	-0.927220035
1.640268169	-3.766149992	-0.917232861
3.349571665	-5.85750906	-0.934505765
2.590420978	-4.945186472	-0.926892448
1.62754526	-3.768476587	-0.916579117
3.338921549	-5.880678446	-0.936563555
1.617128647	-3.776143591	-0.917232862
1.605917448	-3.781985339	-0.917450833
3.30325939	-5.901919678	-0.936700707
2.006518441	-4.304481612	-0.922802382
1.982115243	-4.321173651	-0.923756057
2.01787841	-4.006903958	-0.916586246
3.253557705	-5.9407599	-0.938072567
1.968848549	-4.327234407	-0.923756057
1.561608127	-3.80682534	-0.918758322
1.958390042	-4.339517721	-0.92509126
1.945468523	-4.346401641	-0.925281996
1.644924337	-3.343443175	-0.907103743
1.287442775	-3.205281609	-0.909860188
3.20809829	-5.987915756	-0.940816288
1.933319686	-4.355041112	-0.9258542
3.191572947	-6.001228015	-0.941365008
1.918367377	-4.357358509	-0.925091261
3.176845699	-6.017999056	-0.942462508
1.906168407	-4.365922311	-0.925663465
1.934742756	-4.056386591	-0.918187585
1.493394681	-3.840382234	-0.920065869
1.923127037	-4.064074277	-0.918587948
1.853593485	-4.39169825	-0.92623567
1.461784198	-3.864005472	-0.92246299
3.093139316	-6.083681034	-0.945206229
3.076245126	-6.09667916	-0.945754949
3.055752399	-6.102545528	-0.945206229
1.815708421	-4.414927322	-0.927570873
1.865831765	-4.104690609	-0.921190168
2.31985088	-5.136249356	-0.935737181
1.80474926	-4.426840148	-0.928906077
1.853229985	-4.110395505	-0.921190168
3.020440565	-6.125622632	-0.945892159
2.306501952	-5.148744129	-0.936719884
1.790791559	-4.431446248	-0.928715343
2.291896649	-5.158500744	-0.937211265
1.780107622	-4.444209458	-0.930241222
1.829563067	-4.125271873	-0.921990895
1.390741266	-3.891176652	-0.922680905
2.275662081	-5.164605106	-0.937047471
2.297534735	-4.733780584	-0.927526702
1.766826865	-4.450561927	-0.930431956
1.818081643	-4.133555954	-0.922591412
1.278530942	-2.909737041	-0.902887176
2.281291609	-4.737257828	-0.926832308
1.752805025	-4.455048386	-0.930241223
1.805783241	-4.140012629	-0.922791566
1.738415691	-4.458575786	-0.929859753
1.48814299	-3.441532035	-0.91278049
1.261416136	-2.919293241	-0.903433749
4.177860402	-8.804018602	-0.988315748
2.254712543	-4.756505606	-0.927873898
1.347326199	-3.920872058	-0.925731828
1.477960495	-3.446974489	-0.91301706
4.149983108	-8.814994293	-0.988113927
2.242623753	-4.768748018	-0.92891549
2.229232113	-4.778283258	-0.929436257
1.396528806	-3.689834515	-0.919472787
2.215389259	-4.786887065	-0.929783452
1.686333984	-4.486924275	-0.931385691
1.673930411	-4.495756285	-0.93214863
1.661148833	-4.503633535	-0.932720892
2.830387887	-6.264669068	-0.952065473
2.174481217	-4.814254348	-0.93117224
1.647324059	-4.508708759	-0.932720893
2.81318016	-6.277842523	-0.952751402
2.796320385	-6.291874606	-0.953574483
1.682671126	-4.205281695	-0.925393786
1.671928665	-4.215888497	-0.926594817
1.318596525	-3.723563029	-0.920607659
1.660420201	-4.224645501	-0.927395487
1.307166605	-3.727590687	-0.920607658
1.64816254	-4.231546034	-0.927795853
1.692023901	-3.937185205	-0.919954924
1.355331807	-3.512635691	-0.916565028
1.140052709	-2.984242736	-0.907532819
2.004498397	-5.328503763	-0.945237029
1.251991553	-3.753670302	-0.922196481
1.053784381	-3.167700483	-0.913089802
1.989863841	-5.339250314	-0.946055996
0.966804737	-3.353369167	-0.919284814
1.043457761	-3.169086177	-0.912562181
1.034029095	-3.173189704	-0.912825992
1.026361215	-3.182773147	-0.91467278
2.59803678	-6.42120915	-0.959336285
1.978952948	-4.93608995	-0.937421727
1.007393562	-3.190850544	-0.915200402
1.077649424	-3.013470818	-0.909172425
0.916774532	-3.373403601	-0.920813136
1.509315587	-4.298613786	-0.930798435
1.879942679	-5.395654839	-0.948676634
1.075073004	-4.034398952	-0.932269502
0.896058491	-3.378965442	-0.920813137
1.062690508	-4.037678572	-0.932269504
1.040588296	-3.026468238	-0.909172424
1.470004318	-4.313250571	-0.930998589
0.874582279	-3.381591193	-0.920049003
1.459896673	-4.327023699	-0.933000292
1.037895796	-4.044123082	-0.932269504
1.44723541	-4.333340881	-0.933400656
1.026202884	-4.050126108	-0.932923246
1.431781509	-4.331248446	-0.931999468
1.013772411	-4.053255616	-0.932923247
1.184695972	-3.585055701	-0.91916689
1.004878437	-3.043577232	-0.910538801
1.001332493	-4.056346885	-0.932923248
0.835325364	-3.401460268	-0.922596152
0.977996218	-3.056361716	-0.911631834
0.968905258	-3.060264832	-0.91190512
0.950678975	-3.067990069	-0.912451694
0.916984238	-4.090246522	-0.935974169
1.101435805	-3.629785347	-0.923424507
1.396745991	-4.088567496	-0.927511005
0.904220634	-4.092087762	-0.935756255
0.914598956	-3.084958874	-0.914091299
1.374426304	-4.105405279	-0.929399997
1.359671768	-4.103105882	-0.9279308
1.056809846	-3.643028506	-0.923424508
0.711128219	-3.437477148	-0.924633915
0.88669686	-3.095095317	-0.914637814
0.830482516	-4.116648447	-0.937717546
1.625977802	-5.117102306	-0.946448733
0.921831506	-3.885128146	-0.930594536
0.679834793	-3.44577408	-0.925143357
1.614110754	-5.134279681	-0.948705483
1.211538618	-4.427405967	-0.937804427
0.910573604	-3.890782679	-0.931275458
0.848902105	-3.106671361	-0.914911101
1.597473969	-5.136386512	-0.948184717
0.99185586	-3.670305411	-0.925553288
0.780808571	-4.131324836	-0.938807121
0.887115263	-3.898196185	-0.931729409
0.743980247	-3.281134742	-0.920213033
0.830567504	-3.114610026	-0.915730904
1.173987099	-4.450684624	-0.940406646
1.26226778	-4.147397691	-0.930659381
1.159339098	-4.450473019	-0.939605976
0.627244573	-3.457699739	-0.925652797
0.724248593	-3.287521913	-0.920740712
0.812409541	-3.123371478	-0.916823993
1.14665613	-4.45780441	-0.940406646
1.237632875	-4.157876213	-0.931289046
0.617481943	-3.464367748	-0.926926427
1.132250932	-4.458452361	-0.939806129
1.11999673	-4.467606997	-0.941007161
1.21291693	-4.168208394	-0.931918711
0.685026769	-3.301828802	-0.922323633
1.093260121	-4.477250441	-0.941607678
0.793494392	-3.930248527	-0.934453102
0.754555915	-3.136860968	-0.916550765
0.643795182	-4.173644142	-0.942947673
0.858496527	-3.714739262	-0.92815515
0.948695321	-3.503398768	-0.922604269
0.631425067	-4.178494927	-0.94360142
0.70761379	-3.153697639	-0.918190369
0.605214822	-4.178426857	-0.942729759
0.722242881	-3.950894568	-0.936041924
0.605171225	-3.325237586	-0.924434175
0.803048264	-3.735070098	-0.930047418
0.678557918	-3.160076894	-0.91819037
0.554917822	-4.193279293	-0.944473134
0.675175193	-3.968101061	-0.938084695
0.659940003	-3.167947695	-0.919283458
1.039335987	-4.243034859	-0.937795669
0.650814663	-3.972169134	-0.938084694
0.641251016	-3.175709135	-0.920376549
0.746798615	-3.752666423	-0.931466605
0.630942527	-3.174831108	-0.919556689
0.613782383	-3.975103065	-0.937403769
0.711866608	-3.757471579	-0.930993524
0.602947119	-3.187119778	-0.921469637
0.590093553	-3.983611196	-0.938538641
0.701047216	-3.763458682	-0.931939687
0.566870623	-3.995835514	-0.940581414
0.57307781	-3.189693932	-0.920649778
0.663339273	-3.029794175	-0.916015832
0.463151167	-3.357711154	-0.927072397
0.530197819	-4.001848811	-0.940808386
0.636408068	-3.04046442	-0.917432037
0.505145047	-4.00116208	-0.93990049
0.525638606	-3.207601906	-0.92338253
0.493700389	-4.009458905	-0.941489309
0.505797505	-3.20981651	-0.923109242
0.391719395	-3.373589579	-0.928919186
0.49550707	-3.208501107	-0.922289439
0.574974968	-3.793615783	-0.934068467
0.563904222	-3.799206414	-0.935014631
0.476656661	-3.21719039	-0.923929045
0.432244591	-4.01752864	-0.941716285
0.552664876	-3.803803006	-0.935724223
0.244974559	-3.544356556	-0.935841613
0.466370025	-3.21578174	-0.923109242
0.420220568	-4.02174192	-0.94239721
0.233653454	-3.538337238	-0.934058601
0.272405423	-4.245506572	-0.949921179
0.52998376	-3.811934291	-0.936906841
0.25943864	-4.24729668	-0.950139095
0.517763066	-3.809691389	-0.935960737
0.437787359	-3.227563653	-0.925295422
0.383279942	-4.026408668	-0.942624184
0.505816859	-3.809335499	-0.935487654
0.494377472	-3.81279662	-0.935960737
0.298770548	-3.386961613	-0.929974486
0.471806453	-3.822508389	-0.937616493
0.460309051	-3.825867257	-0.938089517
0.147068088	-3.550735013	-0.936096363
0.309771853	-4.041520729	-0.944666953
0.125380683	-3.55446983	-0.936860495
0.413325131	-3.83122777	-0.938089516
0.114537383	-3.556770822	-0.937369937
0.103737459	-3.560971945	-0.938388819
0.339276418	-3.246170791	-0.927208313
0.610995055	-4.367989993	-0.946821004
0.215988428	-3.400012028	-0.931821217
0.329315698	-3.247196426	-0.927208313
0.378617856	-3.840671356	-0.939508704
0.496414933	-3.63851287	-0.93344397
0.584570548	-4.374563814	-0.947450724
0.195067038	-3.400310369	-0.931557407
0.571399935	-4.37827573	-0.947870462
0.355312972	-3.84582465	-0.940218354
0.331541858	-3.845996404	-0.939745273
0.385138046	-3.102682364	-0.923380223
0.027289313	-3.568180244	-0.93991714
0.308014522	-3.848926884	-0.939981786
0.249746963	-3.257177766	-0.928028117
0.239752904	-3.257928521	-0.928028116
0.478199827	-4.398284585	-0.949759512
0.261480881	-3.86308024	-0.942583647
-0.040931272	-4.28332023	-0.956458797
0.249314669	-3.859016209	-0.941400972
0.30916267	-3.11406262	-0.924229946
0.299791031	-3.116905748	-0.924796429
0.384488259	-4.417279691	-0.95185843
0.307269635	-3.673931248	-0.93713928
-0.126254491	-3.574759	-0.942209596
-0.170112774	-3.572940415	-0.942209596
0.089861513	-3.274162844	-0.930487581
0.095557232	-3.878515437	-0.944475914
0.217185456	-3.683268157	-0.937878378
-0.191980807	-3.570863783	-0.941954904
0.205992493	-3.685852316	-0.938371069
0.208786652	-4.444723695	-0.955216674
0.029614406	-3.27910976	-0.931580612
0.195492492	-4.453157595	-0.956895797
0.181709829	-4.450805863	-0.956266135
-0.11921549	-3.430838416	-0.938944449
-0.020718362	-3.283987891	-0.932946989
-0.030829479	-3.287756469	-0.934040079
0.093173965	-3.704000929	-0.941820091
0.081767013	-3.70233148	-0.941327341
-0.324071101	-3.570045258	-0.944247359
-0.224525787	-3.427491939	-0.939472069
-0.235502158	-3.433523107	-0.941318858
-0.256349697	-3.429127907	-0.940527369
-0.191212716	-3.899297483	-0.950389232
-0.308919632	-3.4247923	-0.94052737
-0.172374079	-3.291085459	-0.936226258
-0.182629959	-3.293422429	-0.937046059
-0.100257968	-3.711572271	-0.94379092
-0.111761008	-3.715122176	-0.944776363
-0.123286782	-3.718636256	-0.945761747
-0.103906259	-3.150676101	-0.931027856
-0.134484301	-3.712429232	-0.944283611
-0.113641013	-3.152259404	-0.93159434
-0.145911287	-3.712967722	-0.944530016
-0.157630062	-3.720249103	-0.946500845
-0.142822301	-3.154912195	-0.932727305
-0.162325543	-3.156849769	-0.933577029
-0.171853301	-3.153463963	-0.932727304
-0.181692554	-3.155794401	-0.93357703
-0.334236698	-3.284405257	-0.937865864
-0.248882059	-3.715260184	-0.946500845
-0.260550127	-3.71834625	-0.947486287
-0.4314588	-3.893754482	-0.95370069
-0.443182688	-3.890481331	-0.953227663
-0.278832755	-3.153512575	-0.934993295
-0.340603588	-3.714789171	-0.948225326
-0.288506301	-3.152642078	-0.934993292
-0.298357772	-3.153651668	-0.935559775
