x	y	z
-5.382212706	11.95593852	-0.951118895
-6.163277887	15.72440811	-1.387056105
-4.874083025	13.95233985	-1.353074651
-4.11510229	13.65317989	-1.446199941
-1.110948199	7.286442847	-1.020795231
0.274846391	5.045184054	-0.932534423
0.077501415	5.354873108	-0.944018354
0.492202733	4.726562706	-0.923374586
0.690766897	4.384232331	-0.906777822
1.053153566	3.846219039	-0.890428531
0.884090065	4.071197312	-0.894348114
1.217127898	3.571177571	-0.87929836
1.231248504	3.576635486	-0.881568106
1.419172172	3.311491027	-0.877064016
1.434336153	3.318716156	-0.880138961
1.832933391	2.698019618	-0.859170849
1.838472847	2.68839234	-0.857897275
1.842325554	2.676367216	-0.855859513
1.616018334	2.983553386	-0.862493343
1.631198789	2.98964152	-0.86569596
1.643630822	2.990568612	-0.8674205
2.195516068	2.17778387	-0.845815054
2.249173966	2.150333766	-0.851091552
2.269745315	2.156711864	-0.856367994
2.305236158	2.137221399	-0.859797648
2.323997269	2.128248124	-0.861908247
2.345596238	2.121713023	-0.865074147
2.346356112	2.109347845	-0.862963548
2.36144787	2.109851258	-0.866129388
2.370073538	2.104517902	-0.866920878
2.377242057	2.097874862	-0.867184687
2.372064374	2.080395647	-0.862963548
2.365347294	2.061700202	-0.858214725
2.394262659	2.074011985	-0.866393258
2.393750683	2.047994786	-0.861644437
2.411780093	2.050638261	-0.865865578
2.392273436	2.021439917	-0.856631806
2.405111927	2.019673697	-0.859006217
2.413518542	2.014139433	-0.859797648
2.430823271	2.015961493	-0.863755035
2.443695894	2.014015735	-0.866129389
2.452102073	2.008342465	-0.866920878
2.45600773	1.998983385	-0.866129389
2.468878507	1.996898359	-0.868503798
2.443416927	1.96393469	-0.857423295
2.473548223	1.975692295	-0.865865579
2.478086834	1.966895007	-0.865337957
2.46820528	1.946738879	-0.859797648
2.489349733	1.951057735	-0.865074148
2.480103564	1.931557509	-0.859797646
2.482203853	1.920987851	-0.858478536
2.480439504	1.907483612	-0.855840317
2.500075493	1.910406531	-0.860589137
2.503620025	1.900977452	-0.859797647
2.483260361	1.873535485	-0.850827685
2.493162238	1.857110798	-0.850300063
2.505825866	1.854617609	-0.852674473
2.492854154	1.833206359	-0.846342731
2.505616749	1.81900938	-0.846870353
2.530743096	1.825420531	-0.853465962
2.532347493	1.768163344	-0.844759812
2.940159317	1.287049409	-0.845416003
2.941432979	1.276867868	-0.844651813
3.176971358	1.030079045	-0.848943775
3.179193838	1.020031343	-0.848697372
3.378505582	0.737237545	-0.841820624
3.580822157	0.496792567	-0.842528495
3.773666385	0.277027626	-0.844882836
3.917737744	0.087755729	-0.841245561
4.104403756	-0.150378355	-0.839119759
4.47913531	-0.632698034	-0.834888724
4.907798699	-1.129330659	-0.836152305
5.104027526	-1.422867702	-0.828324646
5.459654876	-1.757513036	-0.841738295
5.6478105	-2.053775839	-0.832302753
3.238698514	-2.405691895	-0.331335001
2.913405865	-2.392837662	-0.273484657
2.653004211	-2.367249495	-0.229494211
2.430024578	-2.374971395	-0.186817552
2.226570928	-2.38344039	-0.147711676
2.165238094	-2.644279763	-0.095344787
1.982211007	-2.657636383	-0.060534013
1.915112334	-2.584179747	-0.058726752
1.541054858	-2.351990025	-0.025226092
1.430898838	-2.400947647	0.001902496
1.310669516	-2.401515802	0.02373255
1.177882574	-2.394541658	0.048210615
1.160443684	-2.377478	0.047795163
1.047967681	-2.401287611	0.072268069
0.912719858	-2.381314417	0.09480555
0.682001845	-2.935630905	0.222325266
0.716988968	-2.676943033	0.177851925
0.843997647	-2.432089039	0.11636125
0.766032409	-2.521260013	0.144093721
0.691042103	-3.759129583	0.34878178
-0.15634074	-11.44175686	1.690341572
-0.675645354	-10.66343453	1.6665115
-1.341416715	-5.465787435	0.987707611
-1.891528029	-6.203278385	1.203610223
-2.559855412	-4.883647313	1.122613302
-3.570730186	-5.661878315	1.430750302
-4.678047649	-4.869326466	1.513912003
-4.684148258	-4.845831012	1.511068026
-4.691509622	-4.823742747	1.50866143
-4.697414267	-4.80026071	1.505817453
1.17318847	-2.374221629	0.0459519
