x	y	z
-8.404940572	17.4926128	5.494940995
1.10700621	13.55922685	1.875417256
8.114369519	8.722041074	-0.978371374
6.854865765	5.296304361	-0.878536451
6.14285661	3.297287461	-0.829245693
5.926971402	2.528854844	-0.828800442
5.684830057	1.377510902	-0.858436595
5.60878754	1.268325566	-0.843916367
5.703324408	1.774453114	-0.82722694
5.413361215	0.50608073	-0.849947898
5.405048371	0.48858093	-0.848403363
4.927071883	-1.070275883	-0.837135066
4.92280158	-1.085174514	-0.836971272
4.92233732	-1.100918282	-0.837462653
4.917012587	-1.115578028	-0.837135066
4.907798699	-1.129330659	-0.836152305
4.896936677	-1.158514612	-0.83549713
4.896237448	-1.174222986	-0.835988512
4.888940283	-1.204243582	-0.835988511
4.862259784	-1.277089517	-0.834678221
4.839827897	-1.366907726	-0.835005809
4.813565578	-1.439572698	-0.834186841
4.805894473	-1.501770715	-0.83598851
4.802205355	-1.516805131	-0.836152304
4.790951112	-1.52943087	-0.835005809
4.770667128	-1.603997913	-0.835660924
4.774130774	-1.621481769	-0.837135066
4.763534769	-1.634200316	-0.836152304
4.347338686	-3.299589041	-0.853191404
4.339447929	-3.3569928	-0.857670455
3.156573654	-2.439402307	-0.365232597
3.301538812	-2.457716014	-0.417423384
2.085154494	-2.399618229	0.002163876
2.273079552	-2.403942917	-0.060406228
1.936243749	-2.374024466	0.05534557
1.563764855	-2.382838423	0.182911451
1.636968486	-2.383725225	0.158126338
1.226189524	-2.389354732	0.297064584
1.219755486	-2.394876669	0.297284465
1.420317181	-2.402211302	0.228210174
0.983252133	-2.383153767	0.380827348
0.978183058	-2.391653017	0.381704162
1.111568922	-2.380810321	0.336685855
1.160150812	-2.410615414	0.317206058
0.827130515	-2.344372133	0.436292258
0.880830161	-2.357525687	0.416908073
0.875647911	-2.365768119	0.417888657
0.771467262	-2.52788198	0.437827037
0.849557272	-2.510089249	0.413314576
0.826932474	-2.545697956	0.417475457
0.815789034	-2.564847674	0.419787046
0.69308872	-2.98155352	0.421979123
1.158614346	-9.151986974	-0.331817856
-0.416945205	-8.131693247	0.302694213
0.097847808	-7.958099506	0.143782871
0.269660837	-8.105210773	0.070347583
-3.873633782	-11.75686578	1.129587607
-5.198164984	-10.37023649	1.713577011
-2.30038835	-5.44153413	1.202814212
-2.200225645	-4.642869245	1.247052548
-2.254386211	-4.682692997	1.261440751
-2.098214602	-4.72729426	1.202615804
-3.742304542	-5.515190463	1.686255629
5.714304119	3.729799975	-0.641816791
