x	y	z
-2.157039092	3.773596037	-0.80221918
-1.745265893	3.267927794	-0.827231159
-1.734317598	3.271542011	-0.826795328
-1.711048466	3.276066613	-0.825269868
-1.701887857	3.283033551	-0.825705755
-1.934620676	3.668572917	-0.805878455
-1.640942743	3.164301134	-0.830725879
-1.537199985	3.332149942	-0.819385995
-1.927698489	3.500792324	-0.81650039
-1.547865104	3.197879002	-0.828002186
-1.897981318	3.343229191	-0.825293808
-1.517534642	3.210228709	-0.827548236
-1.798282684	3.543746587	-0.811896409
-1.553952472	3.063057405	-0.836143877
-1.396397935	3.374560205	-0.815463413
-1.384556819	3.375216663	-0.814591696
-1.760367096	3.549614305	-0.809494399
-1.373459975	3.377640362	-0.814155866
-1.751199191	3.558514798	-0.81029507
-1.364185643	3.384553805	-0.814809611
-1.350899002	3.38147259	-0.813066292
-1.79531766	3.376225991	-0.820886046
-1.494766919	3.085894966	-0.834724632
-1.410567082	3.23741155	-0.823008747
-1.47329498	3.089746437	-0.833305445
-1.242862163	3.411232877	-0.810669114
-1.271945516	4.00386827	-0.775357514
-1.259655853	4.007751651	-0.775357514
-1.247354328	4.011597257	-0.775357513
-1.233306443	4.009765534	-0.774268536
-1.502309656	3.466382372	-0.811021178
-1.118977602	4.030915611	-0.772090581
-1.078524611	4.028694529	-0.769731131
-1.208996009	3.538984061	-0.802835374
-0.302133568	3.522993753	-0.789530684
-0.260779	3.084409897	-0.81535899
-0.182384102	3.517537083	-0.78647982
-0.302878291	3.402991818	-0.796225758
-0.292353283	3.40293465	-0.795998784
-0.384665709	3.282026094	-0.80444845
-0.260574537	3.399654998	-0.794636937
-0.128370837	3.518945527	-0.786261905
-0.364305964	3.282393213	-0.803975369
-0.117509082	3.517372015	-0.785826018
-0.229535877	3.40579616	-0.795544836
-0.208574459	3.40616826	-0.79531786
-0.187563563	3.40543911	-0.794863912
-0.303379177	3.283705404	-0.802792695
-0.177114929	3.405998559	-0.794863912
-0.16652187	3.403607522	-0.794182987
-0.283475391	3.288409257	-0.803502289
-0.171699599	3.28348766	-0.800427402
-0.041061157	3.401587549	-0.792821142
-0.235776018	3.170152554	-0.808048613
0.216201247	3.498997676	-0.782775153
-0.157857423	3.174015952	-0.807802266
0.226619117	3.49344826	-0.78168552
0.104734252	3.39047903	-0.790551396
-0.128441715	3.170492609	-0.806570478
-0.079818136	3.173058489	-0.806816822
0.057041392	3.765768644	-0.769460046
0.301212483	3.368918445	-0.788281651
0.450437575	3.466770733	-0.780595888
0.332397744	3.367941896	-0.7887356
0.342433004	3.363999526	-0.788054676
0.118702589	3.614655076	-0.776389033
0.287030039	3.744438138	-0.767258132
0.15192488	3.612432505	-0.776179163
0.185216462	3.61185766	-0.776389032
0.329767597	3.248933578	-0.794987108
0.389890309	3.731188734	-0.766457463
0.495966563	3.338905229	-0.786692831
0.295602311	3.600578655	-0.775549499
0.306564349	3.598680677	-0.775339573
0.68284311	3.42658368	-0.780160059
0.317345574	3.594801385	-0.774709909
0.339029092	3.588893001	-0.773870319
0.361631279	3.592581933	-0.775129703
0.426886997	3.578521123	-0.773660451
0.448958136	3.576804409	-0.773870319
0.459430519	3.571531284	-0.773030786
0.839050231	3.388700879	-0.779506314
0.848492766	3.38232427	-0.778634598
0.547535915	3.563046155	-0.773870319
0.47925176	3.11217922	-0.800411587
0.557858756	3.557485878	-0.773030786
0.568770349	3.555757635	-0.773030786
0.579991388	3.555925944	-0.773450582
0.601635854	3.551336153	-0.773240654
0.555826061	3.1013884	-0.800904279
1.725961057	6.694821034	-0.567804091
0.709518091	3.52737583	-0.772401122
0.817385765	3.503951607	-0.772401122
0.827906835	3.50047607	-0.772191197
1.007265947	3.599509875	-0.763655032
0.73533726	3.062797011	-0.800657933
1.018037485	3.595459959	-0.763454879
0.744730335	3.060526672	-0.800657934
0.859621743	3.490809014	-0.7717714
1.041443155	3.593851009	-0.76445576
1.417839409	3.788038996	-0.746499446
1.05081048	3.58499761	-0.763254725
1.084329889	3.577049649	-0.763655032
1.273510278	3.671731644	-0.755141491
1.106547827	3.571264978	-0.763855243
0.956708485	3.469516181	-0.772610992
1.5096411	3.750278027	-0.746136454
1.139369982	3.560929304	-0.763855243
0.966822673	3.464681161	-0.772191196
1.522619718	3.749273451	-0.746862439
1.149385044	3.554620289	-0.763254726
1.535233598	3.747314343	-0.747406927
0.987794836	3.457743571	-0.771981328
1.545971769	3.740768869	-0.747043934
0.998941308	3.456575361	-0.772401123
1.556684246	3.734192968	-0.746680942
1.363924272	3.641210823	-0.755522961
1.568133256	3.729399573	-0.746680942
1.051844824	3.440845741	-0.772401123
1.421409026	3.624430235	-0.756476693
1.23886744	3.532738913	-0.764856066
1.062973628	3.439470655	-0.77282086
1.62594483	3.706707994	-0.747043934
1.430354755	3.614575795	-0.755332226
1.25002695	3.529844883	-0.765056276
1.637309267	3.701702194	-0.747043934
1.648658177	3.696661661	-0.747043934
1.269998582	3.517500883	-0.764055396
1.105101268	3.42616741	-0.77282086
1.49815674	3.591259217	-0.756095224
1.31444409	3.505320665	-0.764856066
1.336277187	3.498104653	-0.765056276
1.742262009	3.66219245	-0.748495904
1.358426493	3.491665808	-0.765456583
1.410349267	3.466787507	-0.764655912
1.811130836	3.633022907	-0.749221889
1.846278864	3.61970389	-0.749947873
1.455067722	3.454637085	-0.765856946
1.273265926	3.37147433	-0.77366045
1.900664641	3.589219444	-0.749584881
1.755030943	3.809502785	-0.739347983
1.698115621	3.34956825	-0.767258133
1.922387028	3.741142693	-0.741431107
2.542311625	3.865744583	-0.723297447
2.554159659	3.857926674	-0.723297447
2.120251818	3.645202346	-0.743340719
2.143579308	3.633820617	-0.743687916
2.397108796	3.716449806	-0.734274377
2.179473865	3.618155793	-0.74455588
8.585932448	12.11677426	-0.133226413
2.694334132	3.78564845	-0.726386515
2.19209627	3.613978304	-0.745076646
2.708237271	3.780577333	-0.727004318
2.456570905	3.68334649	-0.735093345
2.211650529	3.596265382	-0.744208683
2.484096862	3.675559919	-0.736567486
2.781496878	3.735634148	-0.728085487
2.807935313	3.723229989	-0.729012162
2.543573745	3.641875993	-0.737550247
3.101917167	3.791265956	-0.718897115
3.117307276	3.786314616	-0.719768298
2.828928526	3.703575209	-0.728548853
3.12764642	3.775209104	-0.719477903
2.84268606	3.69801193	-0.729166655
2.578701834	3.620721921	-0.738041569
2.350170289	3.523894211	-0.746639061
3.167365538	3.752311697	-0.720639538
3.190329751	3.732806348	-0.720639537
2.900918406	3.656294388	-0.729629964
2.387489303	3.509442922	-0.748201419
3.203702211	3.725251576	-0.721075129
2.913971553	3.649693435	-0.73009333
3.21576356	3.716153391	-0.721220326
2.40897779	3.494727502	-0.748201418
2.938795631	3.634818233	-0.730711133
2.419126922	3.486511182	-0.748027791
2.95055679	3.626551372	-0.730865626
3.037350763	3.573646839	-0.733182398
3.048300328	3.564311621	-0.733182399
4.137995682	3.669169188	-0.711311581
3.768592902	3.594992038	-0.721319918
4.557541704	3.730263239	-0.700506514
4.575127528	3.72127607	-0.701451368
4.615392205	3.683965811	-0.70239628
3.844335287	3.534401302	-0.723240499
4.661610997	3.651127571	-0.704286044
3.873282548	3.517405612	-0.724612359
3.882584881	3.504178715	-0.724337999
4.687853626	3.625493072	-0.704876548
4.69816708	3.610488904	-0.704758471
4.710800501	3.597263481	-0.704994685
4.745470111	3.577855675	-0.706884449
5.394703984	3.478002925	-0.702505302
5.428524742	3.452838714	-0.704137277
5.438251916	3.435637185	-0.704028498
5.454660765	3.422635195	-0.704790067
5.488237815	3.396949121	-0.706422042
5.496939779	3.379054151	-0.706204425
5.524370411	3.34938495	-0.707074773
5.544839543	3.338573917	-0.708380354
6.68001348	2.681366696	-0.730011629
6.693754826	2.663066694	-0.730617034
6.704670309	2.643612789	-0.730919765
6.72572275	2.628099984	-0.732332337
7.577549974	2.465865356	-0.729553501
7.586027187	2.442911537	-0.729644637
7.65159425	2.360791787	-0.733109157
7.668325543	2.340212824	-0.73402087
7.685956064	2.319840983	-0.735023777
15.98347524	4.669230168	-0.464537424
16.04574202	4.634039311	-0.465931756
8.937562847	1.770931322	-0.748286716
9.028197844	1.674021229	-0.754098169
9.033291462	1.646315206	-0.75409817
9.054977536	1.621580369	-0.755489699
10.49533676	1.09470152	-0.765467653
10.5105534	1.06370223	-0.766335854
10.53361923	1.033398905	-0.767782876
13.46905947	-1.513222217	-0.874821898
13.49715132	8.059524411	-0.299720122
