x	y	z
-6.951242819	11.77078213	-0.991635094
-2.718686973	7.638835771	-1.042857291
-2.258593042	7.030635252	-1.022715812
-0.134910591	4.038247469	-0.902196279
-0.423936689	4.583352037	-0.940406645
-0.27581565	4.214755476	-0.906731753
0.036610686	3.892508918	-0.907216162
-0.264404963	4.239977694	-0.911978991
0.181028666	3.691619642	-0.89977118
0.423324476	3.306309962	-0.878020161
0.33169645	3.499529062	-0.89353425
0.550099649	3.151837648	-0.875099409
0.704325793	3.004441461	-0.876653203
0.811970771	2.808142658	-0.863332179
0.848776347	2.837303184	-0.874662009
2.831769183	0.656500686	-0.858517018
2.831900003	0.647382358	-0.857950534
2.946607882	0.464321523	-0.847413193
2.933232417	0.443786427	-0.842767605
2.917452221	0.432247655	-0.837848731
3.090275906	0.330026779	-0.850036253
3.082638913	0.319649033	-0.847661842
2.890525234	0.410149025	-0.829377303
3.07688702	0.309514319	-0.845815053
3.233708498	0.193616862	-0.853312308
3.044157318	0.287365601	-0.836317469
3.359537435	0.063885022	-0.854117222
3.628415614	-0.257191998	-0.847748909
3.45410719	-0.116304597	-0.8413476
3.751889291	-0.417412879	-0.842921544
4.241605353	-0.922742811	-0.843454356
3.921896691	-0.553505514	-0.850270897
4.046945809	-0.739833494	-0.840521001
5.274432682	-2.081403687	-0.832154942
5.058012898	-1.803070167	-0.839445144
4.583094412	-1.309540267	-0.840207624
5.555863704	-2.35507787	-0.835732404
5.367591438	-2.590260344	-0.766547921
3.472083901	-2.482904749	-0.467176359
3.428143472	-2.467413497	-0.462280463
2.986352526	-2.444412718	-0.391391176
2.968087904	-2.444707845	-0.389978575
2.445874045	-2.378573482	-0.312353204
2.300811353	-2.604032325	-0.252068946
1.901786042	-2.378072452	-0.220885897
2.232261093	-2.694076916	-0.225822818
2.075855538	-2.601327706	-0.214808654
1.982728136	-2.6952084	-0.183962862
1.752781587	-2.401120615	-0.191878554
1.740133607	-2.399216529	-0.191298854
1.436971501	-2.336317545	-0.150804529
1.273028174	-2.348412395	-0.12097427
1.129640366	-2.368729389	-0.094394294
1.003874012	-2.369084256	-0.071780485
0.993890868	-2.3657018	-0.071585273
0.896505203	-2.414506783	-0.047025216
0.734451669	-2.556594818	0.001810604
0.808733951	-2.47196398	-0.023333238
0.69009395	-3.827475182	0.21267338
0.654028632	-3.461152132	0.159212162
1.009135897	-11.2327597	1.337234261
-0.505950429	-9.386475574	1.29584458
-1.027891451	-10.2895696	1.527547339
-1.591640089	-11.05098127	1.74140736
-3.075238917	-5.186707152	1.058233377
-4.161347402	-4.840030727	1.1846327
-4.183865927	-4.806248559	1.182625455
-4.199887299	-4.794869375	1.182990473
-4.217828378	-4.785649876	1.183902783
0.888281127	-2.385198621	-0.050585442
