x	y	z
-7.933906471	17.23315615	3.862611641
-2.79677839	9.267889705	1.79665653
-0.106180533	13.54161836	2.37661731
1.183542152	13.5242959	2.248950289
2.967391397	12.94411216	1.96171389
1.220460063	3.526649123	0.275294886
1.02140376	2.538312932	0.10171536
1.296284689	2.558231609	0.0791061
1.824937262	3.288757862	0.170003926
1.865664918	3.314059918	0.171900381
1.597580036	2.592841494	0.055020431
3.01087178	3.426325167	0.082404206
3.411095442	2.998755104	-0.040745702
3.439507197	3.436139714	0.042173853
3.488668325	2.825345126	-0.081965534
3.724300471	2.922728138	-0.086438043
4.433247294	2.751351633	-0.187674259
8.212159509	3.517668448	-0.404589739
9.573787566	2.582354661	-0.719308088
8.656324437	2.077056135	-0.731097928
5.290013004	0.18652817	-0.776832831
4.981452832	0.021148951	-0.778745621
5.605543801	0.332594987	-0.777703052
4.698966761	-0.125749948	-0.780463445
4.110719451	-0.543166419	-0.805687721
4.461057642	-0.283924733	-0.787955035
3.541054653	-0.86525226	-0.81393795
3.894418797	-0.662668692	-0.807092334
3.546909726	-0.878223118	-0.815899242
3.357117995	-0.951984187	-0.813248844
3.692904121	-0.778244342	-0.810181586
3.151494993	-1.019399281	-0.806340719
3.154817576	-1.031176205	-0.807996419
2.863318162	-1.243108832	-0.82223647
3.006387039	-1.157599093	-0.818888313
3.022695556	-1.174539749	-0.824308105
2.683951959	-1.282757173	-0.813628723
3.028100798	-1.187345653	-0.826771683
2.677396979	-1.289729587	-0.812837292
2.685575585	-1.303835478	-0.816530756
2.708184718	-1.356128348	-0.828402806
2.523750324	-1.379552434	-0.817080092
2.518663206	-1.386824713	-0.81680686
2.522808841	-1.399210896	-0.819539556
2.331893042	-1.46411266	-0.813197702
2.349277749	-1.485096178	-0.820845333
2.349564933	-1.495386277	-0.822544838
2.349003537	-1.505174751	-0.823961045
2.350016126	-1.516013598	-0.825943794
-0.052674491	-2.987927499	-0.882592882
-0.27712193	-3.100468528	-0.884304772
-1.229438005	-3.681114064	-0.90449247
-1.034253525	-3.527142456	-0.894804025
-1.452669497	-3.761962176	-0.900452901
-2.454439454	-4.435579907	-0.93561986
-1.637155987	-3.928556875	-0.913658171
-2.162519412	-4.237079434	-0.924328262
-1.889963052	-4.062319511	-0.915385212
-2.726508684	-4.622009596	-0.945927967
