x	y	z
2.735004734	1.912862021	-0.777840825
2.740860528	1.904462198	-0.777840826
2.367360761	1.642183834	-0.788037944
5.944312753	4.452478794	-0.679956238
3.009071671	2.246929356	-0.767258133
2.930333159	1.86678322	-0.775801647
2.37477061	1.636555113	-0.788829434
5.95954246	4.435409981	-0.680138569
2.93769607	1.85882799	-0.776237477
2.749281754	1.88540553	-0.776932928
5.345446931	4.26260468	-0.693384933
2.943385016	1.849806456	-0.776237477
2.759882372	1.880251975	-0.778294775
5.35382044	4.242477679	-0.692779528
3.349432146	2.651875995	-0.753062118
2.949046282	1.84076765	-0.776237477
2.248345366	1.63503301	-0.789753028
2.777880663	1.855312003	-0.778521749
12.39855628	7.642173928	-0.523877551
6.031724469	4.346967069	-0.68068562
2.831202464	2.199724031	-0.769672483
12.4432527	7.617143705	-0.52477621
5.405479173	4.176458966	-0.692779529
3.055033777	2.180655726	-0.766857827
2.837163978	2.190430011	-0.769462614
2.974750042	1.806466011	-0.777109136
13.13042861	10.09505325	-0.462055487
12.45289994	7.570626027	-0.524201085
5.419845374	4.161067003	-0.69298135
3.064906138	2.173539861	-0.767658496
5.544839543	3.338573917	-0.708380354
2.854438506	2.175944089	-0.770512073
2.986615726	1.788680659	-0.777327109
2.799622587	1.820552449	-0.778294774
13.21600976	10.0324289	-0.462892098
2.989572733	1.778012882	-0.776673307
10.54830618	6.76669379	-0.567547586
5.583038389	3.291943273	-0.709359538
3.001267896	1.760129363	-0.776891221
2.464834461	1.842120778	-0.78218121
2.581008107	1.509488667	-0.78759455
10.57575706	6.738594869	-0.567909506
7.781503981	5.790909835	-0.626069006
5.488623288	4.081596978	-0.693687664
5.594827703	3.275803608	-0.709577154
3.432363643	2.550234094	-0.753756511
2.880925749	2.140751916	-0.770512073
2.825044351	1.788143175	-0.779202672
2.642164559	1.813073992	-0.780085531
2.471252547	1.835127885	-0.782427557
7.808862137	5.77412922	-0.6268419
5.499519596	4.063556494	-0.693485843
5.610866853	3.262121067	-0.710338723
3.331787653	2.09809315	-0.765060002
7.829756943	5.752508118	-0.62709957
5.515970282	4.049609057	-0.693990337
5.619126663	3.243897838	-0.710121107
3.337376614	2.087340924	-0.764869267
2.893218637	2.122456258	-0.770302205
7.853816698	5.733166655	-0.627614852
5.62560241	3.224665846	-0.709685932
3.348767951	2.080200042	-0.766013677
2.904457226	2.117025407	-0.771561532
3.355134126	2.069916343	-0.766013677
2.847604131	1.75385167	-0.779429646
2.316550426	1.547290262	-0.791392633
9.114914227	6.07965333	-0.602394635
3.358120704	2.057561753	-0.765250737
9.13851791	6.054969615	-0.602724011
3.140588289	2.071585979	-0.76865932
13.60466911	9.684336011	-0.465875966
3.489547984	2.478220042	-0.754450905
2.929420629	2.080657617	-0.771351663
2.685365989	1.759112344	-0.781504718
13.61636104	9.629853926	-0.465262455
9.178005003	6.00042224	-0.602888698
3.499548626	2.469206029	-0.754971672
2.937387994	2.072787962	-0.771771402
9.204745038	5.977674424	-0.603437716
2.942132116	2.062643872	-0.771351663
2.872498012	1.708969365	-0.778975698
5.707517372	3.110729269	-0.711426686
2.881081402	1.702130203	-0.779883596
3.171169115	2.022641214	-0.768459166
2.957145044	2.04622141	-0.771981327
5.730876165	3.078001823	-0.711970698
3.649659885	1.954540027	-0.764104692
3.65216601	1.941487484	-0.763378708
2.971259393	2.029141179	-0.772401122
3.835733858	2.40067696	-0.751308668
2.973425443	2.017271296	-0.771351664
3.087698929	1.62474286	-0.779070484
2.723346013	1.701555813	-0.781741287
2.656280049	1.393648649	-0.790141754
2.98527577	2.011964419	-0.772820861
2.910235783	1.65966623	-0.780791493
2.732681458	1.695754259	-0.782923962
5.779675219	3.013417699	-0.713385057
2.987372108	2.000076528	-0.771771402
2.998378819	1.994150586	-0.773030786
3.581861449	2.366124214	-0.756707657
3.600180278	2.33091661	-0.756013264
2.949485331	1.599109867	-0.781926366
2.954377576	1.590053406	-0.781926367
2.771798396	1.627196304	-0.78245088
2.413028254	1.395897862	-0.791939207
3.151567906	1.512948836	-0.780595889
2.78834226	1.602584834	-0.782923963
4.50041747	2.798226379	-0.733940962
3.504029463	1.834130908	-0.768493348
2.796621335	1.595949033	-0.783870068
4.590423114	2.179530529	-0.745759557
3.657784073	2.258241939	-0.75774919
3.507026835	1.822014483	-0.767921086
3.162556596	1.494416673	-0.781031776
4.597088234	2.165436991	-0.745759557
3.668053214	2.249068542	-0.758443583
3.515217478	1.81259605	-0.768493347
3.074747087	1.885504147	-0.774290114
3.168010131	1.485121316	-0.78124969
3.675777229	2.238316827	-0.758617211
13.51678115	6.294076867	-0.536314895
4.538654979	2.745352129	-0.734626893
3.302083012	1.831504773	-0.771461749
4.547056597	2.731414771	-0.734626894
3.090294266	1.856118212	-0.773870319
4.557967103	2.718973969	-0.735038464
3.310679817	1.809799304	-0.770861233
3.185996318	1.446133129	-0.78124969
2.82808139	1.545599891	-0.78457966
2.827685883	1.534136147	-0.783160475
5.456489101	2.695802039	-0.723892159
4.582248393	2.695475895	-0.736273114
3.111460416	1.830075698	-0.774919778
3.012649068	1.481092881	-0.782380316
2.838367317	1.528678702	-0.78481623
5.462058956	2.67773794	-0.723537868
4.587930649	2.679906082	-0.735861545
4.007172896	2.146295109	-0.754748272
3.202740903	1.418329537	-0.782121351
5.476499236	2.66400844	-0.724364585
4.596130865	2.665818022	-0.735861545
5.482857914	2.646331098	-0.724128372
5.490055179	2.6290685	-0.724010294
3.346904255	1.750370085	-0.771661903
5.50527077	2.615621924	-0.724955148
3.139166253	1.782133014	-0.774919778
5.508778416	2.596602909	-0.724364586
5.048149547	2.608355151	-0.730829242
4.629361074	2.609702132	-0.735998753
5.522115896	2.582213633	-0.725073284
4.639074638	2.596454638	-0.736273114
4.050390736	2.074421019	-0.755567241
3.155435598	1.753165466	-0.774919778
3.774533127	2.081750228	-0.759832372
5.080664749	2.546654715	-0.730956797
3.77831052	2.068741376	-0.759311605
3.383814166	1.691095907	-0.772862936
3.859737612	1.574680434	-0.769368138
5.098862953	2.51674943	-0.731339517
3.071346902	1.37198259	-0.783969136
25.9413521	11.60017109	-0.254934255
5.575967222	2.483364018	-0.726018137
5.117249147	2.506329585	-0.732870343
3.258213284	1.301656864	-0.783428897
5.58991826	2.469053917	-0.726844913
3.082382375	1.354286545	-0.78465006
5.591099929	2.449103871	-0.726018137
5.599497905	2.432334656	-0.726136272
4.420629819	1.917226859	-0.753261118
3.888934696	1.517434622	-0.770457116
3.422327401	1.632320588	-0.774664487
2.527004824	1.204148894	-0.795218419
5.616053941	2.419072425	-0.727317339
3.831475106	1.992126038	-0.761221159
4.744285391	2.448898392	-0.739428347
5.167907087	2.414231972	-0.733635726
4.752657612	2.434783131	-0.739565555
4.133833616	1.928519464	-0.757368911
3.905494419	1.482624636	-0.771001606
3.281620409	1.241463258	-0.783428896
5.174389777	2.397948636	-0.733508173
4.755690026	2.417946005	-0.738879625
4.143312095	1.917485291	-0.758024086
3.847892044	1.955885144	-0.760873962
3.438543069	1.588556824	-0.773863817
3.287241638	1.232074566	-0.783864726
5.179018368	2.380819736	-0.733125451
4.767507504	2.405575568	-0.739565555
4.145589214	1.90311849	-0.757368912
3.852115929	1.943183601	-0.760526765
3.910832028	1.457259579	-0.77027562
3.443400492	1.578000006	-0.773863817
3.291006164	1.221983733	-0.783864727
2.937965615	1.346003123	-0.786708442
5.186298488	2.364919522	-0.733125451
4.778408316	2.392711762	-0.740114277
3.858940058	1.931797203	-0.760700335
2.941196544	1.33658134	-0.786471929
5.673415542	2.320929137	-0.729088968
5.198047849	2.35104072	-0.73376328
4.468098571	1.824844336	-0.754496723
3.873668293	1.92433055	-0.762436319
5.214285998	2.339141851	-0.73503894
3.464039007	1.549040708	-0.775265003
4.48196184	1.798498085	-0.754960088
3.691509606	1.478617195	-0.772689635
3.254836039	1.592298494	-0.777858286
3.133557315	1.252403747	-0.786465856
4.803846586	2.332162793	-0.739565556
4.490212675	1.78583447	-0.755423454
3.700590297	1.469095826	-0.773643309
4.819010398	2.321282618	-0.740800206
3.898765912	1.877504352	-0.762783517
3.476353057	1.516309467	-0.774864639
4.843341143	1.690991135	-0.752874445
4.5093685	1.761484866	-0.756813495
3.486384182	1.507970792	-0.776065673
5.256841624	2.262019947	-0.73605949
4.832267694	2.291245717	-0.740663055
4.848506544	1.676123946	-0.752874446
4.511065765	1.746215319	-0.756195692
3.716701904	1.436035694	-0.774215573
5.261931861	2.245102884	-0.735804323
4.516402121	1.732367372	-0.756195694
3.280647373	1.543016792	-0.778278082
2.583461008	1.097542184	-0.797404597
3.28359361	1.532117833	-0.777858286
2.583270183	1.088117501	-0.796311509
3.924425495	1.816238653	-0.762262751
3.968965398	1.328218657	-0.772453574
4.859120756	2.231360281	-0.740525845
3.3487987	1.08224778	-0.785826017
4.886683465	2.189784242	-0.741623346
4.255952661	1.706221733	-0.761299897
3.997307469	1.269861377	-0.77408704
3.753596698	1.345384414	-0.774787777
4.256583554	1.69133523	-0.76048093
4.00212259	1.257886666	-0.774268536
2.607829375	1.033101729	-0.796858081
4.570894905	1.609971664	-0.757585734
4.003145795	1.244726478	-0.773724047
4.916482232	1.515948207	-0.755052518
4.923949048	1.501723395	-0.755488109
4.582554993	1.582539888	-0.757894663
4.273810033	1.652798749	-0.760808517
3.988454193	1.71380976	-0.765213895
4.93163001	2.101795447	-0.742446428
4.931374761	1.487467042	-0.7559237
4.589258432	1.569112638	-0.758203536
4.280703171	1.640385129	-0.761136105
3.992787266	1.70117921	-0.765040267
3.775650417	1.288282904	-0.775169248
4.938759373	1.473179264	-0.756359291
4.60247345	1.557876547	-0.759593635
4.29032655	1.628995178	-0.76195507
3.780515081	1.277007418	-0.775359983
3.562142787	1.349808493	-0.778267588
3.03477632	1.149609237	-0.790019955
4.938510685	1.456620946	-0.755633305
4.294380817	1.615477601	-0.761791277
4.00496725	1.677408786	-0.765387465
2.633608981	0.987627294	-0.799044259
4.958083387	2.059356668	-0.743543927
4.030100153	1.172204013	-0.774631528
4.969873976	2.04639858	-0.744367067
4.611923094	1.513909762	-0.758821395
3.577173197	1.317982343	-0.778868104
4.965029149	1.414902595	-0.757666122
4.625003213	1.502500797	-0.760211437
4.309993738	1.576223593	-0.76195507
3.582120125	1.307337432	-0.779068256
3.809940496	1.222165411	-0.777458126
3.587956938	1.297007708	-0.77946862
4.3214414	1.550414563	-0.762282658
3.814607781	1.210767949	-0.777648861
3.589152087	1.285003093	-0.778868104
4.331754848	1.539130985	-0.76326536
4.984882641	1.354645906	-0.758101713
4.339248163	1.526816475	-0.763756741
3.599742411	1.263930061	-0.77946862
3.383191205	1.332540118	-0.780586869
4.344843547	1.513821151	-0.763920534
4.04676154	1.579332848	-0.765734662
4.060992616	1.087171101	-0.775902002
3.605454021	1.253523756	-0.779868984
3.389084936	1.322865438	-0.781006663
2.657053527	0.922697781	-0.79904426
4.994057391	1.324287321	-0.758246969
4.658491741	1.419130533	-0.761292606
4.345737203	1.499197405	-0.76326536
5.000968034	1.309711527	-0.75868256
4.663769629	1.405116793	-0.761447042
3.837431656	1.153525313	-0.778602594
5.001130876	1.293371669	-0.758101713
4.667111464	1.390519806	-0.761292605
4.356723318	1.47313619	-0.763592947
3.8418935	1.142026478	-0.778793329
3.614981844	1.21966051	-0.779468621
3.426822334	0.879469928	-0.789966572
5.017538051	1.281204607	-0.759989392
4.670407905	1.375915588	-0.76113817
4.082604687	1.039438301	-0.777535524
3.848204418	1.131064833	-0.779365534
3.40323326	1.280487907	-0.780586869
4.080052295	1.025469992	-0.776446491
3.42836672	0.857479553	-0.789094854
4.086042358	1.013658042	-0.776991035
3.852241691	1.10661834	-0.778793329
3.436666481	0.848360867	-0.790402401
3.090913475	1.010896963	-0.791675654
5.033921726	1.236149827	-0.760715377
4.695226928	1.336388115	-0.763146012
3.856562945	1.095062765	-0.778984064
4.697402441	1.321442005	-0.762837139
3.86084953	1.083491001	-0.779174799
3.444654046	0.827942118	-0.791056145
5.036600245	1.204088737	-0.759989391
4.697627122	1.305965797	-0.76221928
4.100871817	1.471330808	-0.767991412
3.867939346	1.072690414	-0.77993774
5.039307442	1.188403911	-0.759844194
4.707327904	1.293117809	-0.763146012
4.40241063	1.38397348	-0.766213644
3.872158507	1.061078027	-0.780128473
3.645948375	1.143510139	-0.780669654
5.048712222	1.174282838	-0.760715378
4.408519807	1.371046508	-0.766541231
4.112609426	1.447121271	-0.768512178
3.875395766	1.049193493	-0.780128474
5.05807688	1.160115227	-0.761586617
4.120749942	1.435793311	-0.769206574
3.651959665	1.120829948	-0.780469502
4.417792914	1.344257653	-0.766704966
4.417173144	1.329276386	-0.765886057
3.886787843	1.013976448	-0.780510002
4.736175323	1.223229591	-0.764690546
4.423121708	1.31628119	-0.766213644
4.120155317	0.90214635	-0.778443006
4.737991106	1.208205208	-0.764381616
4.432817164	1.304375843	-0.767196346
3.892936341	0.990108415	-0.780510002
4.739759603	1.193181172	-0.764072745
5.09345	1.053635211	-0.763329041
4.155315658	1.348492859	-0.770074595
5.096658164	1.038003826	-0.76332904
2.720676165	0.761399066	-0.802596757
5.104669445	1.023334982	-0.764055026
5.105843298	1.007286207	-0.76376463
4.460832298	1.223866225	-0.768015314
4.147262462	0.815168687	-0.780076472
5.109880975	0.991805495	-0.763909828
4.767655766	1.107300197	-0.765153913
4.464566176	1.210174811	-0.768015315
4.177193281	1.299154035	-0.771116128
4.15650232	0.803748152	-0.781346945
4.471116646	1.197237519	-0.768506695
3.491679022	0.659917358	-0.793453324
2.738262616	0.703278061	-0.803143274
4.798565345	1.037168806	-0.767470686
4.169310093	0.740068042	-0.78152844
3.942095496	0.849457898	-0.783561821
5.135068077	0.89894616	-0.765071463
4.801724861	1.022442076	-0.767470686
4.179311544	0.728624472	-0.782980411
3.942762523	0.836952034	-0.783180351
2.742526323	0.68646318	-0.803143275
3.51887432	1.012266199	-0.786044031
3.335127462	0.694667811	-0.793956015
3.172500064	0.774312597	-0.794987109
4.517819606	1.077002085	-0.771127333
4.518221412	1.062459122	-0.770635952
4.19485256	0.665201504	-0.783887892
4.518576889	1.047923869	-0.77014463
4.197845093	0.652479766	-0.784069386
4.836161147	0.921683252	-0.769632965
4.525617072	1.034935791	-0.770799745
4.540549328	1.009073697	-0.772273887
4.54266023	0.994927705	-0.772110094
4.545691357	0.980986336	-0.772110095
4.21320362	0.58882806	-0.785158423
4.550609261	0.967446041	-0.772437681
4.554521446	0.953682579	-0.772601474
4.217712136	0.563095382	-0.78533992
4.561290773	0.940501919	-0.773256649
4.21551909	0.549644418	-0.784613934
32.69424368	5.061190181	-0.296801303
5.226550089	0.571309888	-0.771605563
4.897891783	0.701731687	-0.773494273
4.901978381	0.68697612	-0.773803203
4.900147381	0.671397367	-0.7731854
4.245074163	0.421533113	-0.787336376
4.905122228	0.656754122	-0.77364871
5.242579271	0.49181082	-0.772767197
4.904174711	0.641317962	-0.7731854
4.603518188	0.773774884	-0.775058318
3.813078006	0.63831492	-0.789877558
4.916899974	0.627645326	-0.774884372
4.6097641	0.760289994	-0.775713493
4.031602685	0.512062404	-0.789665515
5.243526968	0.459460988	-0.772476803
4.608179337	0.745513637	-0.775058318
4.258744639	0.370174187	-0.788969842
4.029258111	0.499208371	-0.788902575
3.566751669	0.305886276	-0.799337197
4.030770618	0.486844455	-0.788902575
4.260935912	0.34403606	-0.788969843
4.039069417	0.475278962	-0.790237719
4.040508858	0.462885038	-0.790237721
5.255676756	0.395600082	-0.773493183
5.262786774	0.379901457	-0.774364423
4.628834411	0.676166015	-0.776696254
4.940650304	0.507799672	-0.776428848
4.273562268	0.279149015	-0.790421812
5.271990391	0.315585944	-0.775090408
4.056358931	0.376647382	-0.791572922
4.056517649	0.364113129	-0.791382187
3.26870747	0.413636566	-0.802083101
4.055659701	0.351496685	-0.791000717
5.290290529	0.251571697	-0.77726848
4.059653997	0.339297714	-0.791572924
2.826080308	0.339269189	-0.808608721
5.291037307	0.235340137	-0.777268479
4.062632581	0.326998781	-0.791954393
5.296677353	0.219311013	-0.777994465
4.06655287	0.314760519	-0.792526656
3.432670727	0.263105111	-0.802354069
3.27353733	0.373493357	-0.802083102
4.963624109	0.372016158	-0.778127819
4.071415339	0.30257404	-0.793289597
3.589168381	0.130932555	-0.801952233
2.83290755	0.3136677	-0.809701811
4.96868392	0.357069498	-0.778745621
4.289941982	0.148266634	-0.792236831
3.438106475	0.242311583	-0.803261967
4.968770281	0.34175631	-0.778591184
3.078636139	0.089686156	-0.811283522
5.312675564	0.122074818	-0.779882085
4.684913289	0.450966566	-0.781446149
3.601704175	0.065039352	-0.804349411
5.315303407	0.089507874	-0.78017248
4.988226834	0.266289131	-0.780907957
4.305071971	0.043069415	-0.794596281
4.310100678	0.029895544	-0.795503762
3.451269733	0.147632442	-0.805077762
3.448787209	0.136927486	-0.80439684
2.844755348	0.218124106	-0.810521613
4.418928983	0.493932061	-0.78378873
4.088090513	0.140263467	-0.794815534
4.094388562	0.12790462	-0.795959945
3.890518516	0.263747374	-0.796683396
5.00906122	0.144246749	-0.783379167
4.708354733	0.307817858	-0.783411671
5.014128006	0.098215862	-0.783997028
4.101538698	0.077762191	-0.797104413
5.01266054	0.067421333	-0.783688098
2.854496805	0.139737714	-0.811887987
4.725047763	0.221654997	-0.785377134
3.899199935	0.180322284	-0.797484066
4.722748858	0.207028102	-0.784885753
3.902671199	0.168485634	-0.798084582
4.723361958	0.192537942	-0.784885754
4.111083326	0.014870655	-0.798821084
2.863351492	0.113765222	-0.81407411
3.905589552	0.14460863	-0.798484944
3.462217007	-6.968E-4	-0.806893558
5.024960767	-0.009499246	-0.785541504
3.903077318	0.132526024	-0.797884428
5.033800024	-0.024959654	-0.786931604
4.106137952	-0.022939959	-0.797867351
3.316523718	0.102076737	-0.807759907
5.035675516	-0.040418877	-0.787240475
3.90675546	0.108656416	-0.798484947
3.313907594	0.091820572	-0.807050314
5.037503765	-0.055889842	-0.787549405
3.619334792	-0.179082866	-0.809143652
4.117531478	-0.060905099	-0.800156231
5.039041568	-0.086832377	-0.787858277
4.117325229	-0.073537222	-0.80015623
3.619142325	-0.201341527	-0.809361567
4.113154512	-0.08608649	-0.79939329
3.621430553	-0.212615556	-0.81001537
4.747591601	0.06233326	-0.788325359
3.617838847	-0.22354439	-0.809361567
4.747760383	0.047767561	-0.788325358
4.122361503	-0.111588334	-0.801300697
3.622979405	-0.235021777	-0.810669113
4.123962287	-0.124294179	-0.801682168
5.039091969	-0.164181409	-0.788167208
4.335035939	-0.302916679	-0.802037682
3.47579567	-0.118044569	-0.810525151
5.04547611	-0.179886775	-0.789248376
4.123122048	-0.149595997	-0.801682168
2.982251358	-0.112789374	-0.816266945
5.049836517	-0.195556382	-0.790020614
4.119701124	-0.162129045	-0.801109964
2.983818774	-0.122017083	-0.816794623
5.047238879	-0.210965631	-0.789711743
4.122126655	-0.174892176	-0.801682169
3.624785138	-0.291036411	-0.811976659
3.32774962	-0.020123215	-0.810125257
2.872286927	-0.018120982	-0.815987
2.985904354	-0.140459128	-0.817586054
4.765447472	-0.054399936	-0.791273643
4.127839224	-0.200515177	-0.803017371
4.765257847	-0.069019864	-0.791273641
3.929370042	-0.059519518	-0.802888716
2.980170239	-0.158521478	-0.816266943
3.929168708	-0.071574377	-0.802888715
5.058204526	-0.289207401	-0.792028515
3.618922858	-0.346510475	-0.811758744
3.473796251	-0.203423176	-0.810979099
3.32946393	-0.091659154	-0.810834851
4.764624819	-0.142136445	-0.791437436
4.332128325	-0.450029478	-0.803852646
3.619463004	-0.380211328	-0.812630405
4.767123851	-0.156850759	-0.791928757
4.33463864	-0.463736597	-0.804578631
5.377973742	-0.588250729	-0.793966722
4.773521464	-0.171723609	-0.793075313
4.334172963	-0.477140507	-0.804760127
3.743706248	0.003444644	-0.803674965
4.334642792	-0.490656506	-0.805123118
3.745654643	-0.008045101	-0.80409476
4.334094044	-0.504066297	-0.805304615
3.743656921	-0.01952637	-0.803674966
3.622279009	-0.425509973	-0.81437378
3.474551627	-0.289178562	-0.812567921
3.3349774	-0.153285058	-0.812727118
2.875045789	-0.132899577	-0.817626664
4.772040055	-0.230336679	-0.793239106
2.987538726	-0.260241242	-0.820224276
4.774266579	-0.245127761	-0.793730487
4.783342352	-0.260309906	-0.795368421
3.931698055	-0.216578772	-0.804490055
3.477561566	-0.321683469	-0.813929768
3.336335715	-0.184133501	-0.813436711
3.473649837	-0.332072932	-0.813248845
5.069027613	-0.524646205	-0.796662061
4.779787658	-0.318989271	-0.795368421
5.064446934	-0.539881071	-0.796198696
4.128667356	-0.442748726	-0.806832187
3.474154443	-0.375197799	-0.814383716
2.87571596	-0.203756642	-0.818992982
5.068659089	-0.556062486	-0.797125369
4.329239284	-0.638642273	-0.807664122
4.13509534	-0.456274535	-0.808358067
3.938771059	-0.289774432	-0.806892123
3.475891014	-0.386177211	-0.815064641
4.13075009	-0.468626703	-0.807785863
2.982089998	-0.342953057	-0.821015766
2.983897581	-0.352439783	-0.821807255
4.785147499	-0.393158485	-0.797170092
3.940819146	-0.326418032	-0.807893002
2.874916388	-0.239190266	-0.819539557
4.51505494	-0.217883175	-0.796808469
3.938822867	-0.33842287	-0.807692848
5.064424871	-0.650146371	-0.798206537
3.611475222	-0.605153549	-0.817642618
3.333102637	-0.307345265	-0.814855898
5.067304424	-0.666324769	-0.798978834
3.607677492	-0.615902072	-0.817206788
3.200712517	-0.184839169	-0.814946598
2.979096261	-0.398296781	-0.822071064
2.87655246	-0.274909483	-0.820905932
5.062298951	-0.681472486	-0.798515469
3.608655691	-0.627468962	-0.817860533
3.474051815	-0.472544889	-0.817107409
4.782988924	-0.481763973	-0.798152852
2.980417283	-0.417103419	-0.823126363
5.067805573	-0.713899526	-0.800060003
4.788357092	-0.497148857	-0.799299349
3.756876595	-0.250484375	-0.808292538
4.792694771	-0.512466264	-0.80028211
3.754139654	-0.261873076	-0.8078728
3.20400418	-0.224509389	-0.816424735
4.789138842	-0.526951856	-0.799954523
3.333640814	-0.369393794	-0.816511598
3.077398394	-0.577922753	-0.824783675
4.793381061	-0.54230765	-0.800937284
4.321592471	-0.814762065	-0.81165704
3.934792857	-0.447813001	-0.809094036
3.203532582	-0.244238258	-0.81667108
2.875783525	-0.328356445	-0.82227225
5.060616391	-0.776335133	-0.800368875
3.072845137	-0.596610114	-0.824528927
5.06309119	-0.79262126	-0.801141171
3.202939603	-0.263969766	-0.816917427
3.075763558	-0.6167844	-0.826311999
4.790280347	-0.601580647	-0.801592458
4.31533012	-0.882335006	-0.812927512
3.600137541	-0.740424375	-0.820693541
3.06718626	-0.634665633	-0.825038367
4.788455042	-0.631219808	-0.801920045
3.464769977	-0.590968164	-0.819150181
3.332645136	-0.441917252	-0.818403866
4.124484002	-0.713332547	-0.813317353
3.597436091	-0.762905396	-0.821129371
3.335125018	-0.452662297	-0.81935003
5.066133328	-0.888926192	-0.804075746
5.066300331	-0.904985929	-0.804539055
2.97090786	-0.537326388	-0.825764586
4.119675214	-0.751615457	-0.813698822
2.873877355	-0.417799933	-0.825004946
5.063566671	-0.936594201	-0.805002421
4.116384784	-0.764071764	-0.813508087
3.3312413	-0.493840278	-0.819823054
3.063473386	-0.692935056	-0.827330881
2.867824608	-0.425908342	-0.823638628
4.791632988	-0.721603183	-0.804540683
3.202002202	-0.363077844	-0.819134659
2.967731731	-0.565007951	-0.826292207
2.87030859	-0.43528161	-0.824731716
4.121259255	-0.791165715	-0.815415494
2.871811629	-0.444526993	-0.82555152
2.966101813	-0.583579385	-0.826819885
2.865683516	-0.452585169	-0.824185144
3.934122078	-0.657011808	-0.814898993
3.455258742	-0.7100857	-0.82210085
2.867089054	-0.479893835	-0.825824806
2.868447879	-0.489172839	-0.826644608
4.785725518	-0.826178712	-0.806342353
3.760497329	-0.507213257	-0.814589292
2.861247146	-0.496983116	-0.825004945
3.759892015	-0.51888161	-0.814799218
3.453337478	-0.742881079	-0.823235721
3.319207917	-0.586128343	-0.820532705
4.780565987	-0.855527804	-0.806342352
4.530527422	-0.639644851	-0.806529868
3.931549016	-0.706279492	-0.816100025
3.759250636	-0.530550988	-0.815009087
3.049201773	-0.78875999	-0.829623335
5.049344696	-1.111371546	-0.808245927
4.523670177	-0.652837967	-0.805661905
3.928400276	-0.718161784	-0.815899875
4.529440478	-0.667862576	-0.807050636
3.92714165	-0.730389729	-0.816100027
3.570767045	-0.942489452	-0.824616122
3.444453616	-0.774206113	-0.822781773
3.921994346	-0.74188825	-0.815499511
3.19221851	-0.481556039	-0.820612794
2.859903137	-0.54206786	-0.826917896
4.785209356	-0.91709923	-0.808963049
3.925472479	-0.755027585	-0.816700544
3.321276056	-0.639176806	-0.823371079
4.776563648	-0.930643781	-0.807980289
3.925060502	-0.767443222	-0.817100906
3.041406062	-0.836722014	-0.830896967
2.950123367	-0.694125231	-0.828930426
5.04804889	-1.192555294	-0.810871629
2.855736171	-0.56855458	-0.827191124
5.046288239	-1.208497089	-0.811180501
3.921237976	-0.791706431	-0.817301058
2.858692642	-0.578266758	-0.8285575
3.038226069	-0.866004324	-0.83217054
2.947000344	-0.731670048	-0.83051335
2.853207445	-0.595403464	-0.828010928
3.919536713	-0.828979381	-0.818502093
3.311534075	-0.711371079	-0.824553753
3.749686901	-0.670797298	-0.817737668
3.307437494	-0.721113404	-0.824080672
3.743763674	-0.681597553	-0.816898136
3.743577678	-0.69343619	-0.817317931
4.765971556	-1.081309649	-0.811419894
4.762631349	-1.095926424	-0.811419893
4.762128726	-1.111205248	-0.811911273
3.420220827	-0.935955256	-0.826413365
4.758697294	-1.12581002	-0.811911273
3.419210398	-0.946963784	-0.826867314
4.76577337	-1.142934841	-0.813712945
4.513566863	-0.908132464	-0.811564139
4.763202956	-1.157783682	-0.813876738
3.421768053	-0.970317087	-0.828910083
3.296295869	-0.803906503	-0.825972939
5.022045741	-1.433280321	-0.81643185
4.762502142	-1.173099321	-0.814368118
5.013827971	-1.447584721	-0.815814048
4.758880624	-1.187705039	-0.814368118
3.740739709	-0.788325216	-0.820676176
3.297898969	-0.825769119	-0.82762864
3.003745616	-0.997490402	-0.833698862
5.012208108	-1.463791011	-0.816277413
3.734479312	-0.798979717	-0.819836587
3.533225577	-1.180636625	-0.831807543
3.290640869	-0.834688582	-0.826446021
5.012431605	-1.48056084	-0.817049652
3.292769921	-0.845989054	-0.827628639
5.008041816	-1.529517184	-0.818594188
2.996308166	-1.046317308	-0.835991318
2.826217473	-0.75470928	-0.831016908
5.004269516	-1.545165903	-0.818748623
4.75145397	-1.279202541	-0.816988814
4.74179607	-1.292217478	-0.816006052
3.167291038	-0.73990034	-0.826771684
2.989831647	-1.064682562	-0.835991318
4.998463171	-1.577031541	-0.819366425
4.742564604	-1.30807056	-0.816825021
3.165006117	-0.749613988	-0.826771684
4.738528917	-1.322614375	-0.81682502
2.734342925	-0.655974996	-0.830475715
3.276625743	-0.928131726	-0.829047884
5.262612088	-1.928863428	-0.822571587
3.388688182	-1.108706924	-0.830952854
5.261309359	-1.946716549	-0.823297631
3.390818759	-1.120932139	-0.8323147
2.814902078	-0.816834107	-0.83265657
4.493167863	-1.13599196	-0.816945661
3.270741633	-0.959069894	-0.829757476
2.896706804	-0.969987064	-0.83552598
2.813305908	-0.825737223	-0.832929801
4.981700676	-1.673173672	-0.821528762
4.97467256	-1.687814514	-0.821219889
4.488019731	-1.164034654	-0.817292859
3.377592891	-1.151150443	-0.831633777
5.250878717	-2.01645486	-0.825475646
3.380491382	-1.163726337	-0.833222598
3.267355119	-0.990824132	-0.831176665
3.864099274	-1.184301075	-0.825708295
5.239328339	-2.048996043	-0.825620842
4.191596759	-1.642623996	-0.830895809
2.884216648	-1.015266976	-0.836317468
5.238539243	-2.067239476	-0.826492081
4.186537346	-1.655475897	-0.830895808
5.234930475	-2.084399337	-0.826927674
4.965879853	-1.770226814	-0.824154465
4.719424993	-1.490658365	-0.821738709
4.191486126	-1.672320754	-0.832892267
2.956667065	-1.187735302	-0.839302711
2.719897724	-0.750412142	-0.83330813
4.71295009	-1.504530432	-0.821411123
4.475318897	-1.249094642	-0.819028843
2.720353836	-0.759526833	-0.834157911
4.704556766	-1.517770879	-0.820755949
4.474308916	-1.26362193	-0.81954961
4.951231846	-1.816537118	-0.824463337
3.463607515	-1.42366375	-0.836165954
2.874637746	-1.061728471	-0.838164201
5.219018734	-2.152632936	-0.8285249
4.943782599	-1.831032413	-0.824154465
4.701713954	-1.548769417	-0.821902503
3.466435838	-1.437273693	-0.837909331
2.713248011	-0.78453213	-0.83415791
5.205995094	-2.16597404	-0.827508461
4.697876015	-1.563498291	-0.822066295
2.866263489	-1.078667397	-0.837636579
4.470742505	-1.322063934	-0.821806361
5.199896345	-2.200961988	-0.828670096
2.705912375	-0.809470957	-0.834157909
4.933851796	-1.896525319	-0.826316803
3.994926573	-1.538493087	-0.831819172
3.837690181	-1.319421202	-0.829111184
2.933733733	-1.262996936	-0.841340475
3.995677509	-1.552875658	-0.832963582
3.690494074	-1.12816082	-0.828442185
2.927184061	-1.270836197	-0.840576285
3.991808231	-1.565485255	-0.833154373
4.687834129	-1.656608527	-0.825505902
3.985161236	-1.57700221	-0.832772847
3.442812131	-1.51491842	-0.839870621
4.916631434	-1.959488982	-0.827397913
4.678084048	-1.669325094	-0.824686934
2.776723197	-0.99406904	-0.83784873
4.917930038	-1.977512372	-0.828633575
4.682221728	-1.68701328	-0.82632487
3.433452055	-1.53601457	-0.839870622
4.91733308	-1.99481959	-0.829560249
2.769667996	-1.010758269	-0.837575446
2.696120232	-0.870042063	-0.836707084
4.913933133	-2.011018929	-0.830023615
3.816747276	-1.404573227	-0.830912735
3.322267224	-1.3649833	-0.837081107
2.908575067	-1.326908991	-0.842104609
2.691614647	-0.877714893	-0.8361406
3.425379574	-1.57039738	-0.841396082
3.324361747	-1.377779656	-0.838669929
3.215020568	-1.194731278	-0.834961201
2.908004606	-1.337442331	-0.84312349
3.810809252	-1.428997898	-0.831513251
3.664479115	-1.219316363	-0.829071848
3.417001949	-1.579261021	-0.840524424
3.113467022	-1.037059461	-0.834162362
5.157679385	-2.391390554	-0.834333014
4.665021687	-1.76212231	-0.827962746
3.413025354	-1.590149048	-0.840742338
4.897072281	-2.074637613	-0.831413655
4.661437201	-1.777128912	-0.828290333
3.105209928	-1.055519968	-0.833669669
2.757431736	-1.054498233	-0.838668534
4.656883654	-1.791775877	-0.828454126
3.8066375	-1.467535416	-0.833514955
2.753286083	-1.062606559	-0.838395246
4.649525695	-1.805340449	-0.82812654
3.799377888	-1.478141465	-0.832914437
3.30283662	-1.428610626	-0.838669929
4.09664262	-1.964384247	-0.838518706
3.397652623	-1.634027349	-0.841831971
2.88986164	-1.394103934	-0.845161253
3.296683068	-1.450025844	-0.839350852
3.194043241	-1.265642994	-0.836380389
4.867384098	-2.150708895	-0.831877023
4.641875347	-1.851712156	-0.829764473
3.197362637	-1.27832186	-0.838272656
3.291280085	-1.471816879	-0.84025875
2.741122664	-1.106515154	-0.839761623
3.783517767	-1.539200563	-0.834515835
3.185858969	-1.296451562	-0.837326493
3.287506709	-1.494402298	-0.841620597
2.664686457	-0.978836444	-0.83840659
4.072972051	-2.046078773	-0.841241149
3.778528382	-1.56426061	-0.835516715
3.641420507	-1.349741799	-0.833689422
4.400532131	-1.646752565	-0.828229417
3.772807301	-1.575468138	-0.835316504
3.633599572	-1.359536623	-0.832849889
3.369612068	-1.710587975	-0.843793261
4.402829759	-1.663029334	-0.829618206
3.633070054	-1.372059674	-0.833689421
3.27184769	-1.523774013	-0.841166648
2.656461695	-1.003659155	-0.83868983
4.843345301	-2.265619859	-0.835892766
4.398627014	-1.676879969	-0.829791833
4.064463271	-2.088872854	-0.843419102
3.360787662	-1.732125574	-0.84422909
3.266275905	-1.533390899	-0.840939674
4.837265312	-2.280889586	-0.83604726
2.786360543	-1.321216128	-0.843440701
3.163527596	-1.36726424	-0.838982251
3.621421466	-1.418679583	-0.834948807
3.258168723	-1.566341706	-0.842528495
3.894584442	-1.883418027	-0.840593213
4.594031165	-2.031685979	-0.834023047
3.893200068	-1.897507972	-0.841546947
4.584172273	-2.044163556	-0.833367872
4.027057965	-2.164263459	-0.843782095
3.885598032	-1.908577638	-0.841165476
3.61274597	-1.453775049	-0.835998265
3.340363606	-1.800175429	-0.847280013
3.247983669	-1.598412868	-0.843663368
3.880604108	-1.920925006	-0.841356212
3.058196441	-1.242657931	-0.839089518
4.024062803	-2.194582339	-0.845960108
3.601043376	-1.474803519	-0.835368601
3.33182406	-1.822042435	-0.847933759
4.367948293	-1.8048243	-0.833090175
4.016448996	-2.206444365	-0.845778554
3.23313457	-1.628238818	-0.843663367
4.006219044	-2.216851758	-0.845052569
3.138724117	-1.448968924	-0.841584112
3.591823918	-1.509778389	-0.836418061
2.809058482	-1.57436219	-0.848217898
2.752247528	-1.410023663	-0.845815054
3.306662292	-1.861355542	-0.847280013
3.135052127	-1.470676424	-0.843003298
2.810952018	-1.586775848	-0.850255662
3.998486163	-2.260890364	-0.847775068
3.84981829	-1.994738535	-0.842500622
3.58878533	-1.534479744	-0.837887257
3.03836926	-1.300264016	-0.840074905
4.774889673	-2.48884855	-0.841761976
4.554896838	-2.166643005	-0.837462653
3.585856502	-1.546257122	-0.838307053
3.218997266	-1.683508442	-0.846614035
4.548227927	-2.180606884	-0.837462652
3.213817319	-1.69337625	-0.846614036
2.681534615	-1.289035311	-0.845227012
4.549510577	-2.198413242	-0.838936735
3.579882962	-1.569801006	-0.839146643
2.735179788	-1.465455595	-0.848717143
3.968426473	-2.324940723	-0.848864046
3.833465106	-2.061460701	-0.845743233
3.696355223	-1.817254891	-0.841521825
2.673872639	-1.315784545	-0.846593389
3.958734281	-2.335605597	-0.848319558
3.82712268	-2.073211786	-0.845743233
3.692518344	-1.829456479	-0.841922188
3.568850257	-1.604286355	-0.839986175
3.954086317	-2.349246638	-0.848864046
3.565692735	-1.616035008	-0.84040597
3.272563657	-1.949436619	-0.850548794
4.524068903	-2.272368495	-0.840574671
4.314680586	-1.971741433	-0.836214889
3.951923867	-2.364395909	-0.849953024
3.556271547	-1.624935124	-0.839356511
3.270752048	-1.96197769	-0.851638425
4.725341761	-2.612450972	-0.844078747
4.516196145	-2.285791887	-0.840410878
3.946336059	-2.377524101	-0.850316017
3.681641224	-1.866465243	-0.843323375
3.265552976	-1.972507694	-0.851856341
3.094530287	-1.569227576	-0.844659056
2.764263791	-1.67425842	-0.851274544
3.805141257	-2.137441962	-0.848032111
3.250891394	-1.990978467	-0.851202595
3.085707284	-1.588630419	-0.844895568
4.699797035	-2.674150363	-0.845314352
4.498301666	-2.346515575	-0.842376342
3.078484897	-1.608884185	-0.845605162
4.701000014	-2.693960307	-0.847013323
3.787861783	-2.173838933	-0.848604317
3.531049332	-1.69265503	-0.840615897
3.159442951	-1.816345182	-0.849337729
2.742353582	-1.719031001	-0.852548175
4.489049993	-2.376842168	-0.843359103
3.523233964	-1.715573367	-0.84124556
3.145111415	-1.846826495	-0.850018653
3.139430461	-1.856466819	-0.850018652
2.676372022	-1.585480855	-0.850827684
3.88642317	-2.5070536	-0.853583003
3.518671103	-1.75359714	-0.843974143
2.672323763	-1.594178518	-0.851091553
3.880362901	-2.520036567	-0.853945997
2.669900785	-1.603859751	-0.851882984
4.657302457	-2.803460229	-0.849793463
3.877552006	-2.535158199	-0.855034975
2.613660385	-1.449599351	-0.849052798
4.646144946	-2.816199088	-0.849330097
3.869755991	-2.547042384	-0.855034974
4.639169538	-2.831469481	-0.849638968
3.866022359	-2.561618598	-0.855942455
3.04038756	-1.709702618	-0.849153187
4.637194956	-2.849827409	-0.850874573
3.729429148	-2.295181744	-0.850893194
2.600207863	-1.473593408	-0.849052797
3.607751671	-2.057486105	-0.848527872
3.028151796	-1.727362947	-0.848680104
4.622975896	-2.88031678	-0.851492434
3.724437155	-2.323737803	-0.852991337
4.616627987	-2.896061453	-0.851955741
3.713134309	-2.332542365	-0.852037662
2.594027489	-1.501800384	-0.851512263
2.585252673	-1.507329087	-0.850145885
3.16012968	-2.184023654	-0.857740214
2.631918993	-1.681633468	-0.854257395
3.693161697	-2.367678023	-0.852419132
2.577055777	-1.534504274	-0.852058779
4.794664162	-3.36604787	-0.859743428
3.073146512	-2.000181481	-0.854558142
2.617946214	-1.706839365	-0.854785074
2.995662777	-1.807683272	-0.851755048
2.609838129	-1.724465895	-0.855576505
3.774744582	-2.741436902	-0.861024348
2.633856929	-1.92235385	-0.858916157
4.744680604	-3.463064681	-0.862066639
3.763140692	-2.750683464	-0.860298364
4.732438825	-3.476433327	-0.861776244
3.759436734	-2.765712252	-0.861387399
3.753304885	-2.778988534	-0.861931887
3.423824928	-1.991246457	-0.850270895
3.033572434	-2.082162636	-0.857508811
2.888029533	-1.692733029	-0.850914603
4.707369834	-3.525179771	-0.863083076
3.729923532	-2.815192435	-0.862476375
2.875922587	-1.70943139	-0.850421911
3.722835303	-2.827812101	-0.862839368
3.072618525	-2.33950312	-0.862316598
2.509876142	-1.666555511	-0.855884562
2.917868314	-1.962255798	-0.856012609
2.496410647	-1.679776355	-0.854791529
4.452016512	-3.25164269	-0.861840694
2.489236036	-1.697230019	-0.855884563
4.437540929	-3.283011876	-0.862921863
2.904492111	-1.992325577	-0.857431796
3.549305538	-2.646227346	-0.860239501
2.519616998	-1.884558578	-0.860589137
3.545096226	-2.66004983	-0.861193176
3.001004715	-2.449250079	-0.864931634
2.504930745	-1.897653254	-0.859533837
2.499097011	-1.90532942	-0.859533838
3.525141888	-2.696143331	-0.862337643
2.495535535	-1.914749133	-0.860325327
2.922506682	-2.267296143	-0.8620483
3.60519772	-3.028582974	-0.869010296
2.859448114	-2.066420105	-0.858850982
2.448445279	-1.770378999	-0.858344027
4.543147556	-3.834918484	-0.872521234
2.472676711	-1.958192858	-0.862699736
2.439864608	-1.787074258	-0.859163831
3.487215279	-2.770342751	-0.865389461
2.435144741	-1.795122141	-0.859437118
4.336858218	-3.462614428	-0.867555409
3.477166142	-2.779802304	-0.865007991
3.375877748	-2.518794322	-0.86053815
2.425625786	-1.811181115	-0.859983634
3.374401996	-2.533846162	-0.862139548
3.456761762	-2.816027744	-0.866343195
4.293147103	-3.536897895	-0.869563251
3.532708563	-3.138063837	-0.872095732
4.286839703	-3.553835866	-0.870489984
4.126999707	-3.174557898	-0.864488115
3.526730398	-3.15216387	-0.873003212
2.399843734	-1.849937047	-0.860803435
3.514118318	-3.160338695	-0.872277227
2.893884001	-2.608581397	-0.869943846
2.394156932	-1.857290999	-0.860803436
2.883698625	-2.615480443	-0.869290102
2.388447599	-1.864627426	-0.860803436
3.501205126	-3.187799778	-0.873910693
2.875660753	-2.62431518	-0.869290101
2.408139194	-2.043004893	-0.863755036
3.406706681	-2.899152073	-0.869204278
2.872628065	-2.63774589	-0.870815562
2.780280029	-2.196932367	-0.86263552
2.404060952	-2.052262007	-0.864546468
3.485194462	-3.212555441	-0.874818174
2.399948468	-2.061513558	-0.865337958
2.368389697	-1.896201682	-0.861896526
2.763726258	-2.225475056	-0.863818195
2.361811892	-1.902855432	-0.861623296
2.35596303	-1.910092496	-0.861623297
2.750018962	-2.242391279	-0.863818196
2.353818577	-1.920351777	-0.862989615
3.27461057	-2.686342595	-0.865342283
2.347172409	-1.926953854	-0.862716385
3.432578232	-3.282959145	-0.876633194
3.267109365	-2.697000086	-0.865542437
2.334564855	-1.940704671	-0.862443098
4.024402379	-3.359346997	-0.870384622
3.253506102	-2.719509322	-0.866343164
2.367081975	-2.302710659	-0.869869108
2.763994519	-2.506152016	-0.869538458
4.304581241	-4.213416913	-0.883992207
4.293749393	-4.228686026	-0.884427856
8.97972952	-8.876997181	-0.915956566
2.3064584	-1.990260257	-0.865449079
3.965613502	-3.436083972	-0.871203531
4.099035805	-3.845848842	-0.878675907
3.348241368	-3.38416469	-0.878629652
2.752766802	-2.788718744	-0.874956061
2.312399297	-2.178997293	-0.869031477
4.089372932	-3.860441074	-0.879139273
2.743514659	-2.796454394	-0.874738146
4.08037578	-3.875690635	-0.879757076
2.284743331	-2.020963572	-0.86654217
3.239071157	-3.137741135	-0.876261705
2.713040503	-2.834141001	-0.876045692
2.686947263	-2.606801296	-0.872489126
2.263902126	-2.03997432	-0.865722365
4.042418881	-3.935119686	-0.881919412
3.220458298	-3.158244008	-0.876452441
4.150145738	-4.426843686	-0.890526307
4.134521036	-4.437383688	-0.890090715
3.998720632	-3.989314338	-0.88300058
3.256254694	-3.499677782	-0.882259576
4.126265842	-4.455854524	-0.891252349
4.113246092	-4.469220883	-0.891397546
2.225879225	-2.094051403	-0.868181775
3.845253358	-3.6323206	-0.878246593
3.219012081	-3.545926528	-0.883893042
3.944632507	-4.057975452	-0.884699552
3.209435607	-3.557245766	-0.884256033
3.199163642	-3.567807626	-0.884437588
2.200706765	-2.121876283	-0.86845506
3.188856846	-3.578339998	-0.884619084
2.191461291	-2.320531951	-0.872988809
2.543863163	-2.527852424	-0.873042968
3.093151311	-3.326054442	-0.882556134
3.083598944	-3.33624941	-0.88274687
2.159379999	-2.173421956	-0.870367954
2.154729445	-2.182089992	-0.871187756
3.954190349	-4.6560691	-0.896479618
3.718050716	-3.803917861	-0.883160283
3.704988175	-3.813891419	-0.882832695
3.04439797	-3.376025497	-0.883319074
2.502314575	-2.579827825	-0.874935237
3.698751579	-3.830917917	-0.884143043
3.038612285	-3.390467046	-0.884654278
2.485093455	-2.59372996	-0.874462154
2.50077896	-3.068546544	-0.883890856
2.108035278	-2.228556542	-0.871461043
5.020113965	-5.727713573	-0.905898696
3.04565755	-3.7517888	-0.891878932
3.862982437	-4.781722899	-0.902142536
3.029810705	-3.755757265	-0.890608458
2.096291623	-2.243557711	-0.872280845
3.842719572	-4.786608134	-0.900835704
2.089398616	-2.249978667	-0.872280846
3.830484417	-4.801468464	-0.901416492
3.009772338	-3.778122951	-0.891515938
3.617641453	-3.935787969	-0.887582648
2.910740945	-3.190532508	-0.882356848
3.797718318	-4.851322676	-0.904175353
3.598728819	-3.963754346	-0.888892996
3.779779364	-4.859046276	-0.903449367
4.903476291	-5.879692498	-0.91062302
2.882560056	-3.218646742	-0.882757211
4.889216443	-5.899295911	-0.911331719
2.914768861	-3.525573514	-0.888850565
4.748363968	-6.062518035	-0.915937967
3.633424123	-5.011047651	-0.908386241
1.979564997	-2.541744779	-0.881167283
1.966283834	-2.556901772	-0.882222582
4.687471056	-6.138482902	-0.918654507
1.951141319	-2.569686766	-0.882486393
4.668016363	-6.152043936	-0.918536371
4.651511284	-6.169508041	-0.919008798
2.281687694	-3.284810395	-0.893043567
4.63613381	-6.188517745	-0.919717438
2.270490561	-3.290188327	-0.892607736
4.621276451	-6.208287697	-0.920544213
4.60397948	-6.224831537	-0.920898563
4.586624219	-6.241327864	-0.921252912
4.572724469	-6.262587496	-0.922315842
3.416713206	-4.685032711	-0.906477242
1.910326733	-2.433299989	-0.878839324
4.55640512	-6.280605768	-0.922906405
3.401164387	-4.693892985	-0.906168312
1.869543064	-2.807416024	-0.88846367
4.53943762	-6.297777358	-0.923378831
3.457600752	-5.192290386	-0.915501129
4.522985921	-6.315711119	-0.923969394
3.441108902	-5.202048368	-0.915355932
4.507617941	-6.335221487	-0.92479617
3.42513305	-5.212581419	-0.915355933
3.360680466	-4.729024084	-0.906940607
2.653675453	-3.464279982	-0.891564753
1.883830616	-2.46114269	-0.880478988
4.485867828	-6.34577752	-0.924323744
3.351854727	-4.747383196	-0.908485084
3.319272798	-4.762997162	-0.90755841
2.651331992	-4.123355998	-0.904765277
2.639727719	-4.133128263	-0.905128268
3.202002217	-4.393577421	-0.902651418
1.825126771	-2.509744869	-0.881572077
3.242036672	-4.839704219	-0.910647422
3.185614888	-4.399385504	-0.901832451
1.817981796	-2.516112145	-0.881845306
4.338144553	-6.511002606	-0.930583542
4.324177206	-6.533390036	-0.931882745
3.165444756	-4.428479717	-0.903797914
2.554207294	-3.869262416	-0.900867217
2.545015996	-3.881185149	-0.901820894
4.291609016	-6.57143928	-0.933536237
4.127442504	-5.843366881	-0.920138125
4.108925816	-5.855190034	-0.920010569
4.094346693	-5.872650074	-0.920775953
3.115936027	-4.474276838	-0.905272055
2.507286211	-4.234227373	-0.908213762
4.079698761	-5.890075973	-0.921541395
3.103878301	-4.486249316	-0.905763436
2.498271545	-4.248681111	-0.909665731
4.066106867	-5.909101381	-0.922561887
2.487208379	-4.259722842	-0.910391716
4.204087404	-6.658326543	-0.936607127
4.051877272	-5.927279655	-0.923454884
4.179419719	-6.664463246	-0.935662216
2.46733055	-3.944928903	-0.904109828
2.454698176	-3.951646519	-0.903919037
4.003778275	-5.974208227	-0.924985651
2.433777107	-4.288213374	-0.910028724
3.029515446	-4.55576468	-0.908384075
2.425920075	-4.305083785	-0.912025181
2.429379341	-3.964959408	-0.903537565
3.015524136	-4.565037744	-0.908384074
3.950802042	-6.014120602	-0.925495926
3.006375625	-4.581690556	-0.909858215
3.937752363	-6.034519537	-0.926771585
3.024069346	-5.031908023	-0.917752176
3.920298907	-6.048236771	-0.927026752
3.008111054	-5.040313748	-0.91759774
3.900651085	-6.058567734	-0.926771585
2.994144744	-5.052068548	-0.918061106
3.885785746	-6.076355222	-0.927664581
2.98113664	-5.065488229	-0.918833345
3.871379639	-6.094945454	-0.928685131
2.994264546	-5.581742708	-0.929585766
2.338948268	-4.367455492	-0.914384633
3.979611922	-6.84890911	-0.942158229
2.978986034	-5.594396014	-0.930166613
2.325076515	-4.373742222	-0.914203136
3.961062172	-6.865386598	-0.942748791
2.964582699	-5.60875763	-0.931037795
2.914621821	-4.656900137	-0.912151266
2.311188246	-4.379984881	-0.914021638
4.081885791	-7.770727292	-0.960681689
2.298195897	-4.387926301	-0.914203135
2.890656775	-4.68225107	-0.913625407
2.28835179	-4.401936707	-0.915655163
2.898070429	-5.138435632	-0.922231287
3.889627925	-6.936863871	-0.945937759
1.908241527	-3.139227204	-0.894330945
2.845398121	-4.705281251	-0.912970234
3.846990894	-6.960599263	-0.945937758
3.950648419	-7.869420286	-0.963728023
3.829439223	-6.979333583	-0.946882612
2.853655816	-5.691468473	-0.934377444
3.908015311	-7.905096485	-0.965142439
3.590286093	-5.619320147	-0.92353094
3.886371275	-7.922403841	-0.96579517
3.574621693	-5.632817754	-0.923942511
2.761439802	-4.352429469	-0.90860467
2.783624526	-5.231559818	-0.926401524
3.842010266	-7.955052997	-0.966883194
3.821882029	-7.97576685	-0.967971157
2.751013054	-5.247666129	-0.926247029
3.80208985	-7.997329786	-0.969167899
3.700706763	-7.102227607	-0.952551848
3.604896454	-6.343098653	-0.938380185
2.737636904	-5.261340187	-0.927173762
1.545689059	-2.729623102	-0.891136537
3.782625157	-8.01974657	-0.97047348
3.586393948	-6.355856106	-0.938635293
3.757160532	-8.029512231	-0.970255921
3.569301419	-6.371155369	-0.939273122
2.691876251	-5.806845323	-0.939314318
1.519101949	-2.741209446	-0.890316734
3.62357732	-7.167488744	-0.955268389
3.449080442	-5.741773052	-0.927646521
2.674048464	-5.81507636	-0.939314317
2.67420167	-5.297185128	-0.927637129
1.511148637	-2.746699871	-0.89059002
3.600234673	-7.175909178	-0.954914039
2.654963609	-5.820552545	-0.938878727
2.664575927	-5.31861495	-0.929953903
1.506403545	-2.758076847	-0.892776142
3.575989526	-7.182476445	-0.954323477
2.637909699	-5.830473173	-0.939169121
2.649125764	-5.32853374	-0.930262773
2.633639752	-5.338408476	-0.930571705
3.62531784	-8.134535875	-0.974716614
3.537096731	-7.214982443	-0.955740816
2.604901052	-5.852876952	-0.940185559
2.616380515	-5.34468816	-0.930262773
3.599138709	-8.142892356	-0.974390219
3.517551008	-7.231157935	-0.956449456
3.577731616	-8.162090537	-0.975369405
2.043441726	-4.246805818	-0.915744956
3.553466211	-8.174851747	-0.975586962
2.55271338	-5.380856312	-0.931035071
3.438286538	-7.294438205	-0.959165996
2.521806964	-5.908524913	-0.942799221
1.96398611	-4.61047846	-0.924911525
2.505981597	-5.921701122	-0.943670404
3.401403295	-7.332512754	-0.961410052
2.488950615	-5.932098657	-0.944105995
3.378476477	-7.342011853	-0.961291975
2.471499599	-5.941533794	-0.944396448
3.357584906	-7.355955396	-0.961764401
3.299984466	-6.583583471	-0.947182241
2.454391017	-5.95183234	-0.944832039
2.491892012	-4.977915653	-0.92427181
3.336229959	-7.368935571	-0.962118692
3.278887465	-6.591900648	-0.946927133
2.43874041	-5.9657447	-0.945848417
3.320521819	-7.394536042	-0.964126593
3.261721186	-6.608155077	-0.947820071
2.448702162	-5.461478558	-0.935668617
2.465662777	-5.001960107	-0.925909687
3.243177462	-6.621693746	-0.948330347
2.430329225	-5.465353927	-0.935050813
2.451605899	-5.012159828	-0.926401068
3.22371406	-6.633396419	-0.948585513
2.386657188	-5.995291563	-0.947010051
2.436647936	-5.020545005	-0.926564861
3.203778725	-6.64414906	-0.948713068
2.36680035	-5.998904175	-0.946429264
2.397540419	-5.481973841	-0.935359686
2.422517655	-5.030663306	-0.927056241
1.840634316	-4.674838313	-0.927270976
3.231903311	-7.440191855	-0.964835233
3.185520075	-6.658420116	-0.949350897
2.386607357	-5.502899965	-0.937676459
2.408348165	-5.04074233	-0.927547622
3.169755421	-6.678018226	-0.95075411
2.390759394	-5.04365003	-0.926728654
3.14798512	-6.685019565	-0.950371447
2.315743254	-6.031517427	-0.948171686
2.37569417	-5.051853785	-0.926892448
3.132498458	-6.705428926	-0.951902214
2.2989867	-6.043217632	-0.948897672
3.111077679	-6.713208137	-0.951647106
1.773210055	-4.71448801	-0.929630427
3.092124167	-6.726325857	-0.952157381
1.547539417	-3.377865301	-0.90450188
3.076411819	-6.746609807	-0.953688148
3.058151364	-6.761438581	-0.95445359
2.228739109	-6.082122713	-0.950640153
3.039016967	-6.774408965	-0.954963807
2.211081625	-6.091721844	-0.951075744
3.020235043	-6.788231308	-0.955601636
2.192382247	-6.098476525	-0.951075744
2.976123514	-7.605892442	-0.971449381
2.942977979	-6.839360202	-0.957642737
2.934384784	-7.636987499	-0.973102874
2.922370436	-6.849269354	-0.957770291
2.913060915	-7.65152228	-0.973811573
2.902889252	-6.86185676	-0.958280567
